# .PCD v0.7 - Point Cloud Data file format
VERSION 0.7
FIELDS x y z
SIZE 4 4 4
TYPE F F F
COUNT 1 1 1
WIDTH 708
HEIGHT 1
VIEWPOINT 0 0 0 1 0 0 0
POINTS 708
DATA ascii
0.12274154 0.12582995 1.1141276
0.088977948 0.11064214 1.1166654
0.093706034 0.11539008 1.1176883
0.096798211 0.11796588 1.1176376
0.09992405 0.12006379 1.1179409
0.1038344 0.12243147 1.1183348
0.10764834 0.12391089 1.1177011
0.11135189 0.12449826 1.1160302
0.13840559 0.12448771 1.1159356
0.14163138 0.12383318 1.116998
0.14554428 0.12232149 1.1173253
0.11395837 0.12636201 1.1188385
0.11756489 0.12607402 1.1162887
0.12487581 0.12797831 1.1194146
0.1322621 0.12607378 1.1162864
0.1356262 0.12632611 1.1185207
0.082403474 0.10339305 1.1219618
0.084779523 0.10733701 1.122543
0.086401254 0.10975294 1.123403
0.088586718 0.11189912 1.1215131
0.090889931 0.11419505 1.1211622
0.15952995 0.11439465 1.1231219
0.093294434 0.11661799 1.1220496
0.095702328 0.11904436 1.1229383
0.15817435 0.11609841 1.1245494
0.097976223 0.12052754 1.1222589
0.10182393 0.12255206 1.1218077
0.10790997 0.12498924 1.1204314
0.14773774 0.12285797 1.1222256
0.15153545 0.12045126 1.1215488
0.10717878 0.12586385 1.1236167
0.11277012 0.12728752 1.1224347
0.11744531 0.12833491 1.1225337
0.12190825 0.12812074 1.1206603
0.12813133 0.12813069 1.1207474
0.13303441 0.12836592 1.122805
0.13839024 0.12672739 1.1220737
0.1430254 0.12514651 1.1218412
0.07740894 0.093830049 1.1284814
0.078903198 0.098435 1.1274875
0.080944173 0.10228709 1.1269069
0.082822487 0.10626316 1.1276836
0.087461956 0.11245171 1.1270685
0.092169389 0.11755634 1.127327
0.1561341 0.11866279 1.1266983
0.097648688 0.12212688 1.127453
0.10148254 0.12412219 1.1266546
0.1494199 0.1243862 1.1290511
0.15228406 0.12182403 1.1270709
0.1038946 0.12576714 1.1274047
0.10705107 0.12736936 1.1277579
0.11175349 0.12894826 1.1278986
0.13744569 0.12885454 1.1270789
0.14210175 0.12726621 1.1268446
0.14613464 0.12581645 1.1278467
0.11732513 0.13062324 1.1288662
0.12255868 0.13036558 1.1266395
0.12724216 0.13036402 1.1266259
0.13216938 0.13060462 1.1287054
0.076150417 0.091067523 1.133024
0.077718727 0.096559629 1.1329976
0.079299301 0.10128326 1.1331476
0.080872037 0.104427 1.133182
0.083119079 0.10821193 1.1317194
0.084113695 0.11084141 1.1345443
0.086324677 0.11300699 1.1326169
0.088528998 0.11516604 1.1306953
0.091779947 0.11897568 1.132161
0.094887242 0.12154978 1.1317773
0.098082952 0.12423923 1.1324649
0.15218557 0.12394731 1.1321762
0.10275342 0.1268083 1.1320481
0.1082768 0.12946214 1.1323934
0.14116979 0.12940487 1.1318926
0.14670391 0.12708995 1.1322339
0.11300212 0.13105179 1.1325699
0.11870796 0.13285859 1.1345965
0.1224652 0.13267183 1.1330016
0.12799211 0.13270281 1.1332661
0.13129453 0.13286692 1.1346676
0.13649267 0.13100079 1.132129
0.076456398 0.093797021 1.1375765
0.077926725 0.09839233 1.1360298
0.078850791 0.101717 1.1380167
0.081932843 0.10793077 1.137007
0.084436581 0.11284515 1.1388994
0.085916981 0.11429323 1.1376038
0.08849021 0.11737531 1.1369039
0.09216734 0.12105342 1.13694
0.095287621 0.12363765 1.1365528
0.098521113 0.12637047 1.1375219
0.10241295 0.12841138 1.1369841
0.10617745 0.12977244 1.1351076
0.14398275 0.12982051 1.1355281
0.14727587 0.12837414 1.1366545
0.15058804 0.12693547 1.1378778
0.10484774 0.13007426 1.1377476
0.10881427 0.1316818 1.1380146
0.11268 0.13264176 1.1372232
0.1164477 0.13297094 1.135556
0.12388114 0.13492787 1.1387911
0.12626319 0.13494352 1.1389232
0.13377747 0.1329903 1.1357213
0.13787784 0.13236544 1.1371055
0.14116764 0.13170388 1.1382054
0.12237222 0.13500419 1.1394353
0.12875028 0.13506931 1.1399848
0.076765127 0.096551016 1.14217
0.078346081 0.10208731 1.1421432
0.079833962 0.10512789 1.1407877
0.080760673 0.10768134 1.1427346
0.083184265 0.11249741 1.1433861
0.086988837 0.11703969 1.141331
0.089552857 0.12125298 1.1437721
0.092623949 0.12350049 1.1425674
0.15565561 0.12405042 1.1403471
0.097384602 0.12747048 1.1426609
0.10044331 0.12891543 1.1414472
0.14951518 0.12894695 1.1417263
0.15358174 0.12666628 1.1425567
0.10288458 0.13058558 1.1422201
0.10689646 0.13276269 1.1427864
0.1107636 0.13370827 1.1418526
0.13833918 0.13359611 1.1408949
0.14163704 0.13293579 1.1420052
0.14564785 0.13140225 1.1424279
0.11412969 0.13552976 1.1438711
0.11783462 0.1352337 1.1413723
0.12270722 0.13616335 1.1425229
0.13207461 0.13523741 1.1414037
0.13549732 0.13549732 1.1435972
0.077076077 0.099324845 1.1467966
0.077921152 0.10256858 1.1475639
0.078781858 0.10583825 1.1484962
0.080375887 0.10902472 1.1485316
0.081970021 0.11221138 1.148567
0.083595358 0.1154412 1.14903
0.0865798 0.11835264 1.146396
0.089171834 0.12261139 1.1490784
0.093084119 0.12597035 1.148249
0.096945174 0.12873033 1.1468403
0.15177462 0.12952493 1.1468438
0.099580474 0.13144623 1.1497481
0.10254296 0.13222013 1.1472446
0.10653042 0.13435633 1.147387
0.14306253 0.13431902 1.1470684
0.14789131 0.13199157 1.1475515
0.11131801 0.13596779 1.147568
0.11771289 0.13759814 1.1479025
0.1222769 0.13736327 1.145943
0.12784976 0.13737823 1.1460677
0.13286333 0.13763617 1.1482196
0.13832313 0.13593741 1.1473116
0.075729653 0.094861358 1.1504848
0.075918764 0.097496554 1.1533577
0.077494808 0.1030601 1.1530267
0.079050161 0.10779568 1.1524075
0.081449404 0.11259183 1.1524608
0.08392036 0.1174885 1.1534972
0.085420296 0.11894976 1.152168
0.087835237 0.12217149 1.1524158
0.092691705 0.12745261 1.153263
0.097377777 0.13090107 1.1519562
0.10293946 0.1340611 1.1516826
0.14961262 0.13361128 1.1546893
0.15069729 0.13156113 1.1507531
0.1031795 0.13517314 1.1543626
0.10777678 0.13651943 1.1522239
0.11258477 0.13813806 1.1524066
0.11835715 0.13994962 1.1541762
0.12218034 0.13974945 1.1525255
0.12693889 0.1397119 1.1522158
0.13113615 0.13993159 1.1540277
0.13735694 0.13815464 1.152545
0.14211816 0.1365284 1.1522996
0.14625263 0.1350639 1.1534296
0.076957516 0.1026091 1.1569684
0.078619197 0.10830131 1.1578352
0.080925226 0.11297482 1.1563812
0.083389089 0.11786759 1.1572082
0.086868308 0.12268585 1.1572744
0.089100249 0.12602468 1.1584958
0.091535345 0.12847057 1.1588345
0.094020762 0.1309862 1.1597822
0.096966088 0.13222602 1.1565579
0.10004424 0.13365911 1.1551027
0.15314309 0.13230056 1.1572012
0.10350043 0.13666405 1.157957
0.10832118 0.13881381 1.1580441
0.14116511 0.13875803 1.1575787
0.14683539 0.1364032 1.1580186
0.11386417 0.14032635 1.1572833
0.11605799 0.14006999 1.1551691
0.12285086 0.14212228 1.1588506
0.12770414 0.14216046 1.1591617
0.13366081 0.14006372 1.1551174
0.13638186 0.14039221 1.1578264
0.076522365 0.10310493 1.1625277
0.078131482 0.10873969 1.1624997
0.079729185 0.11274973 1.1623065
0.081202716 0.11497018 1.1603465
0.082147688 0.11758453 1.1623607
0.08383812 0.12092064 1.1634561
0.086088948 0.12309915 1.1611869
0.088694826 0.12739824 1.1637144
0.091099285 0.12979633 1.1635232
0.093594871 0.1323237 1.1644788
0.096519411 0.1335184 1.1608353
0.099168077 0.13625532 1.1636043
0.10141966 0.13683577 1.1616803
0.10548179 0.13930038 1.1621032
0.1440421 0.13921387 1.1613816
0.14742094 0.13775399 1.1626436
0.15080911 0.13629273 1.1639236
0.10887265 0.14113122 1.1639211
0.11192223 0.1414458 1.1620808
0.11746643 0.14240934 1.1611911
0.1250868 0.14445509 1.1647114
0.13277484 0.14243047 1.1613635
0.13779807 0.14183021 1.1630319
0.14116292 0.14116292 1.1641825
0.076837882 0.10595539 1.167321
0.078453913 0.11161597 1.1672971
0.080952652 0.11738136 1.1683407
0.084150732 0.12298975 1.1677921
0.08735691 0.12699169 1.1673645
0.089825802 0.13028787 1.1679295
0.092329793 0.13282523 1.1688923
0.096094139 0.13485479 1.165436
0.094837457 0.13536629 1.1698564
0.098726079 0.1375688 1.1679034
0.1025669 0.13890994 1.1655858
0.14801303 0.1391148 1.1673062
0.15466209 0.1352281 1.1686622
0.102809 0.14004691 1.1683311
0.10761941 0.14214359 1.1678137
0.11158364 0.14311898 1.1669775
0.11734124 0.14485651 1.1679479
0.12198457 0.14460497 1.1659198
0.12762964 0.14459279 1.1658217
0.1318785 0.14482288 1.1676768
0.13826972 0.1431213 1.1669964
0.14164299 0.14245534 1.1681579
0.13536248 0.14508913 1.1698235
0.077156298 0.10883211 1.1721584
0.078792393 0.11453328 1.1723332
0.080419511 0.11778615 1.1723701
0.082883596 0.12270035 1.1727506
0.086375326 0.1275333 1.17235
0.088635854 0.13092086 1.1736037
0.091055095 0.13333057 1.1733394
0.093571253 0.13588172 1.1743109
0.096680611 0.13784598 1.172564
0.15263492 0.13802299 1.1717572
0.10237632 0.14137881 1.1726661
0.1072609 0.143828 1.1727588
0.143103 0.14391518 1.1734695
0.1469034 0.14122073 1.1713566
0.11287302 0.14535676 1.1719813
0.11877337 0.14724675 1.1741015
0.12266185 0.1470325 1.1723933
0.12755519 0.14705329 1.1725589
0.13182761 0.14728856 1.174435
0.13728659 0.14541006 1.1724111
0.075881094 0.10607113 1.1775765
0.077477068 0.11173009 1.1770315
0.079066321 0.11656169 1.1764089
0.080699094 0.11982593 1.176446
0.082331963 0.12309036 1.1764829
0.084052801 0.12648723 1.1777509
0.085584082 0.12796858 1.1763653
0.088222995 0.13233474 1.1789596
0.090611592 0.13469291 1.1781465
0.093138173 0.13725615 1.1791263
0.09693294 0.1392902 1.1756091
0.098745644 0.14118178 1.1777987
0.10286504 0.14368416 1.1782358
0.1051368 0.14425747 1.1762606
0.14749597 0.1426066 1.1760887
0.15092346 0.14113383 1.1773987
0.10853808 0.14608 1.1778127
0.11345295 0.14773606 1.1780031
0.11643484 0.14737557 1.1751287
0.12334669 0.14948715 1.1789389
0.12747896 0.14954233 1.179374
0.13439766 0.14743015 1.1755639
0.13775676 0.14672628 1.1764432
0.14116037 0.1460561 1.1776201
0.076164462 0.10892337 1.1819741
0.077692494 0.11367639 1.1803043
0.078625634 0.11711889 1.182054
0.079619899 0.12066109 1.1846455
0.081122383 0.12291413 1.1826167
0.08330515 0.12700717 1.1825844
0.086866006 0.13193855 1.1827059
0.089342669 0.13524349 1.1829624
0.091855362 0.13778293 1.1836517
0.095668495 0.13982318 1.1801076
0.15629274 0.13829044 1.1809838
0.094394334 0.14036027 1.1846405
0.098296657 0.14252976 1.1822035
0.10058373 0.14310694 1.180215
0.14809528 0.14400291 1.1808603
0.15414608 0.14102831 1.1833539
0.10242939 0.14504001 1.1826414
0.10736898 0.14752868 1.1828791
0.11055647 0.14822756 1.1819222
0.11708582 0.14983793 1.1817052
0.12022054 0.14966232 1.1803203
0.13177703 0.14978306 1.1812725
0.13823375 0.14804918 1.1804998
0.14164606 0.14738049 1.1816885
0.14524847 0.1468897 1.1843412
0.1140405 0.15013966 1.1840849
0.13529275 0.15005195 1.1833932
0.076484069 0.11184882 1.186934
0.07812696 0.11760163 1.1869047
0.079899609 0.12273239 1.1888072
0.082374692 0.12768076 1.1888641
0.084725462 0.13078979 1.1871763
0.086268194 0.13227789 1.1857685
0.088936627 0.13669911 1.1884954
0.091411255 0.13917568 1.1885438
0.093960822 0.14176534 1.189541
0.096965939 0.14298345 1.1859698
0.15215434 0.14392978 1.1870011
0.099692456 0.14583111 1.1890919
0.10275581 0.14659907 1.1864144
0.10690597 0.14884697 1.1868613
0.14312574 0.14888269 1.1871461
0.14813513 0.14649206 1.1877589
0.11185837 0.15051621 1.1870546
0.11774474 0.15232794 1.1883554
0.12246837 0.15205885 1.1862563
0.12740274 0.15206048 1.1862689
0.13259163 0.15235604 1.1885747
0.13821657 0.15055633 1.187371
0.076806061 0.11479616 1.1919309
0.078346021 0.11958077 1.1902326
0.07856632 0.12157104 1.1935794
0.080181301 0.12481831 1.1929984
0.081837133 0.12812884 1.1930364
0.083513618 0.13147193 1.1933681
0.085840106 0.13371274 1.1912363
0.088513948 0.13814794 1.1938958
0.090111487 0.13971414 1.1931421
0.092669815 0.14231423 1.1941468
0.096514203 0.14435886 1.1905397
0.098312736 0.14622986 1.1923434
0.10248045 0.1487641 1.1927927
0.14644006 0.14974944 1.1940572
0.15104051 0.14608836 1.1911895
0.10819701 0.15114802 1.1920375
0.11317122 0.15282495 1.1922327
0.11999667 0.15475433 1.1943723
0.12316027 0.15457107 1.192958
0.12819363 0.15465857 1.1936332
0.13721597 0.1529204 1.1929772
0.1421442 0.15123384 1.1927142
0.075561069 0.1104354 1.1983818
0.077131093 0.11777122 1.1969749
0.07880339 0.1235969 1.197181
0.080464974 0.12691897 1.1972191
0.082988791 0.13195232 1.1977227
0.086186148 0.1359092 1.1960385
0.088871568 0.14036724 1.1987195
0.091368787 0.14286743 1.1987885
0.09523201 0.14491828 1.1951534
0.15651533 0.14326535 1.1951808
0.093939841 0.14548206 1.1998029
0.097865179 0.14762673 1.1969643
0.14991882 0.14826226 1.1954079
0.15361793 0.146975 1.1984191
0.15506858 0.14511766 1.1967976
0.10297812 0.15114489 1.1985555
0.10702649 0.15265682 1.1973886
0.11023869 0.15333953 1.1962472
0.11761834 0.15489209 1.1954355
0.132544 0.15491048 1.1955774
0.14115772 0.15361178 1.1983711
0.14704424 0.1511966 1.198976
0.11376444 0.15528432 1.1984626
0.11523626 0.15503007 1.1965004
0.12386065 0.15711184 1.1997358
0.12550046 0.15708336 1.1995183
0.13620585 0.15530683 1.1986364
0.07572642 0.11317417 1.2010043
0.075901993 0.1159382 1.2037888
0.077458575 0.12076875 1.202057
0.079083189 0.12570064 1.2014316
0.080750674 0.12903458 1.20147
0.082418278 0.13236874 1.2015085
0.084190905 0.13587245 1.2030462
0.086534992 0.13812345 1.2008796
0.089232095 0.14260456 1.2035824
0.090916939 0.14429936 1.2038069
0.092637554 0.1460502 1.2044884
0.096525714 0.14811686 1.2009422
0.15228684 0.14895818 1.2010188
0.099267162 0.15098619 1.2039187
0.10159647 0.15156153 1.2018592
0.10654242 0.15398809 1.2013068
0.14415051 0.15414938 1.2025651
0.14765136 0.1526565 1.2039341
0.10933562 0.15607451 1.2045612
0.11249078 0.15637565 1.2025902
0.11748964 0.15748702 1.2026006
0.1214751 0.15725233 1.2008086
0.1281198 0.15723762 1.2006962
0.13249677 0.1574953 1.202664
0.13916838 0.15583526 1.2027147
0.076117858 0.11794085 1.2072123
0.077789158 0.12379469 1.2071872
0.079364948 0.12781934 1.2057122
0.081875175 0.13283831 1.2057705
0.084533677 0.13809957 1.2079443
0.086103611 0.1396049 1.2064871
0.088431828 0.14311002 1.2078348
0.092912979 0.14760293 1.2080938
0.096084692 0.14955792 1.2058544
0.098810181 0.15240169 1.2085214
0.10286778 0.15416312 1.2070198
0.14650553 0.15487729 1.2082436
0.15059301 0.15226927 1.2074666
0.10710362 0.15647273 1.2076347
0.11214274 0.15817249 1.2078351
0.11976741 0.15996905 1.2087629
0.12296935 0.15977737 1.2073146
0.12804604 0.15984741 1.2078437
0.13716677 0.15807523 1.2070925
0.14215328 0.15636757 1.206823
0.11816324 0.1600651 1.2094886
0.13156609 0.16005811 1.2094358
0.076334953 0.11995493 1.2106555
0.076553293 0.12198052 1.2141182
0.078885503 0.12839845 1.2111901
0.079934575 0.1321024 1.214366
0.081328198 0.13331117 1.2100629
0.082644485 0.13699485 1.212984
0.084879257 0.1403449 1.2128824
0.086455181 0.14185365 1.2114133
0.088387743 0.14562933 1.214902
0.090869606 0.14808366 1.2143176
0.094784252 0.15014496 1.2105877
0.097432241 0.15286747 1.2122169
0.1538112 0.1521302 1.2130407
0.15527928 0.15024319 1.2113796
0.10337085 0.15659787 1.2129225
0.1091665 0.15871236 1.2119576
0.14115512 0.15879843 1.2126148
0.14711718 0.15636304 1.21328
0.114224 0.16041854 1.2121594
0.11655714 0.16016126 1.2102152
0.12287256 0.16242777 1.214623
0.12620297 0.1623808 1.2142718
0.13332997 0.16016369 1.2102336
0.13614443 0.16051483 1.2128868
0.076772884 0.12401774 1.2176009
0.078346021 0.12889184 1.215829
0.078571066 0.13095178 1.2193215
0.080222473 0.13426708 1.2187396
0.08191403 0.13764936 1.2187793
0.083641879 0.14109287 1.2193464
0.086018652 0.14336477 1.2171205
0.08875116 0.1479186 1.2198973
0.090409763 0.14955634 1.219467
0.093473569 0.15073666 1.2153584
0.096082479 0.15339468 1.216401
0.15242255 0.15410678 1.2153718
0.098831132 0.15627144 1.2191199
0.1011906 0.15684493 1.2170084
0.10618386 0.15927705 1.2162697
0.14418902 0.15936682 1.2169552
0.14773189 0.15786208 1.2183574
0.151283 0.15635394 1.2197634
0.1089966 0.16138256 1.2194437
0.11219125 0.16167863 1.2174238
0.11722837 0.16277128 1.2171917
0.12045696 0.16257478 1.2157223
0.12885469 0.16254218 1.2154785
0.13239963 0.16275787 1.2170914
0.13914196 0.16106737 1.217062
0.14115264 0.16143805 1.2198629
0.077104792 0.12709704 1.222865
0.078814849 0.13305302 1.2231046
0.081361279 0.13814467 1.2231648
0.08398705 0.14337184 1.2243783
0.085578978 0.14489114 1.2228811
0.087167017 0.14640674 1.2213875
0.089117587 0.15022679 1.2249339
0.093024865 0.15222237 1.2205167
0.095643982 0.15489247 1.2215682
0.097414099 0.15670964 1.2225384
0.10239176 0.15908864 1.2212951
0.1501352 0.15861741 1.224187
0.10264507 0.16032991 1.2243096
0.10673606 0.16179943 1.2225935
0.11183754 0.16352111 1.2227988
0.13711639 0.16335353 1.2215458
0.14317259 0.16181044 1.2226769
0.14657255 0.16012838 1.2227707
0.11790804 0.16541152 1.2242488
0.12277379 0.16511048 1.2220207
0.12789483 0.16516124 1.2223963
0.13234971 0.16543677 1.2244357
0.077439271 0.13020009 1.2281697
0.079100758 0.13523678 1.2275416
0.080804504 0.13864352 1.2275819
0.082508363 0.14205049 1.2276223
0.084335096 0.14566971 1.2294523
0.086730272 0.14795201 1.2271895
0.091696396 0.15282717 1.2253661
0.094324782 0.15550843 1.226426
0.097765215 0.1584094 1.2269565
0.15400936 0.15741287 1.2280245
0.10289844 0.16157669 1.2273386
0.10882325 0.16408616 1.2270243
0.14115247 0.16410987 1.2272016
0.14719188 0.16165426 1.2279294
0.11394361 0.16581453 1.2272315
0.12267461 0.16782603 1.2295088
0.12602867 0.16775399 1.228981
0.13608146 0.16584808 1.2274798
0.077663973 0.13228479 1.2317334
0.079388745 0.13743642 1.2320107
0.081953749 0.14256537 1.2320718
0.084686026 0.14798668 1.2345681
0.086290337 0.14951296 1.2330461
0.088688858 0.15179476 1.2307696
0.091235891 0.15433361 1.23061
0.093875617 0.15702814 1.231679
0.09651944 0.15972686 1.2327496
0.15256158 0.15937996 1.2300723
0.099098146 0.1614636 1.2329667
0.10244526 0.16306064 1.2321236
0.10581677 0.1647002 1.231616
0.14422844 0.1647106 1.2316937
0.14781441 0.16319394 1.2331309
0.15140867 0.16167367 1.2345707
0.10864908 0.16682339 1.2346983
0.11188424 0.16711406 1.2326277
0.1169607 0.16818535 1.2321411
0.1202292 0.16797981 1.2306353
0.12871236 0.16792274 1.2302172
0.13230018 0.16814828 1.2318697
0.13758163 0.16749442 1.2333319
0.14114995 0.16681358 1.2346257
0.076290928 0.12943742 1.2371472
0.077889994 0.13438164 1.2353181
0.078898087 0.13807145 1.2377181
0.081395045 0.14308393 1.2365534
0.083111398 0.14651597 1.2365947
0.087459147 0.15262659 1.2375299
0.092538357 0.15765777 1.2366174
0.096077427 0.16127264 1.2380571
0.10031029 0.1637544 1.2373658
0.15024734 0.16398422 1.2391025
0.10366853 0.16535559 1.236517
0.10636669 0.16727147 1.2380146
0.1115247 0.16900395 1.2381382
0.13808124 0.16895655 1.2377909
0.14319441 0.16720304 1.2375082
0.14664117 0.16550729 1.2376513
0.11846989 0.1708374 1.2389916
0.12257338 0.17057513 1.2370895
0.12773998 0.17060472 1.2373042
0.13224898 0.1708928 1.2393935
0.076626077 0.1325902 1.2425822
0.078345999 0.13861217 1.2425503
0.079971053 0.14188412 1.2410474
0.082559466 0.14705905 1.2411773
0.086205155 0.1534456 1.2441549
0.088626437 0.1557416 1.2418369
0.091190338 0.15829247 1.241596
0.093853086 0.16101402 1.2426836
0.097313724 0.16391364 1.2429091
0.15421237 0.16282758 1.2433823
0.10241538 0.16667692 1.2421051
0.10847138 0.1695953 1.2424706
0.14114979 0.16955066 1.2421436
0.1472684 0.16707477 1.2429366
0.11365612 0.17134634 1.2426827
0.11600174 0.17099516 1.2401358
0.12412091 0.17325245 1.2440042
0.12675472 0.17331767 1.2444725
0.13499676 0.17111054 1.2409726
0.13703726 0.17151205 1.2438846
0.076963849 0.1357677 1.2480595
0.078576006 0.14074603 1.2461981
0.080265418 0.14413252 1.2456156
0.081994303 0.14758974 1.2456573
0.083775848 0.15114199 1.2464808
0.088189378 0.15735793 1.2478353
0.090721518 0.15984267 1.2469801
0.093395919 0.1625779 1.2480774
0.15270393 0.16478221 1.2451322
0.097723961 0.16604596 1.2481519
0.10203997 0.16862741 1.2480502
0.14789891 0.16865666 1.2482667
0.1515374 0.16712411 1.2497418
0.10471261 0.1704825 1.2489703
0.10800004 0.17107025 1.2469404
0.11136598 0.17179714 1.2459521
0.11751648 0.17368452 1.2471066
0.1216471 0.17341183 1.2451485
0.12856647 0.1734353 1.2453171
0.13219823 0.17367117 1.2470107
0.13908741 0.17191549 1.2468104
0.14270806 0.17125314 1.2482722
0.077190816 0.13790269 1.25174
0.078826807 0.14292772 1.2501757
0.079119116 0.14519662 1.2548116
0.081239976 0.14831485 1.2517771
0.083365873 0.15283833 1.253318
0.086752824 0.15702286 1.2520328
0.089374609 0.16052721 1.2523204
0.092038855 0.16323853 1.2531488
0.094727151 0.16598977 1.2542568
0.098107666 0.16814464 1.2530437
0.15036224 0.16948344 1.2543859
0.10327761 0.17097217 1.2525576
0.10752041 0.17255414 1.2514422
0.11197271 0.17447227 1.2527628
0.13701189 0.17429864 1.2515161
0.14321674 0.17272806 1.2527037
0.14671166 0.17101893 1.2529001
0.11821286 0.17645049 1.2544847
0.122368 0.17617624 1.2525349
0.12758128 0.17618258 1.25258
0.13123125 0.17642346 1.2542925
0.077533945 0.14113048 1.2573042
0.079413585 0.14748238 1.2594819
0.082035795 0.1527262 1.2595458
0.084485762 0.15590672 1.2570435
0.086119458 0.15745074 1.255465
0.08894679 0.16219747 1.2585511
0.091569349 0.16482483 1.2586336
0.093368761 0.16666761 1.2593787
0.098421529 0.16984247 1.2570431
0.15442061 0.16837955 1.2591299
0.10200635 0.17233647 1.2582924
0.10524257 0.17308488 1.2552915
0.14010835 0.17491786 1.2559624
0.14734688 0.17262954 1.258316
0.10811053 0.17524493 1.2583108
0.11336128 0.17701922 1.258528
0.11571357 0.17661545 1.2556574
0.12476692 0.17886166 1.2592208
0.12658288 0.17896201 1.2599273
0.13398927 0.17662174 1.255702
0.13698372 0.17711908 1.259238
0.14218573 0.17533332 1.2589455
0.077879779 0.14438386 1.2629124
0.079710267 0.14978524 1.2641872
0.081464909 0.15329418 1.2642301
0.084032446 0.15756141 1.2633325
0.086485431 0.15986702 1.2608002
0.08849711 0.16385108 1.2645798
0.091096252 0.16642562 1.264167
0.095170327 0.1685126 1.2601248
0.097948447 0.1714091 1.262159
0.10235278 0.17408721 1.2625608
0.14798553 0.17425515 1.2637788
0.15289326 0.17036678 1.2609237
0.10763246 0.17676032 1.2629025
0.1129017 0.17854038 1.2631145
0.11808148 0.17931002 1.2623774
0.1222638 0.17902952 1.2604027
0.12841699 0.17908491 1.2607926
0.13209374 0.17933147 1.2625284
0.1390591 0.17754087 1.2622367
0.14431034 0.17579623 1.2622693
0.078112185 0.14657006 1.2666811
0.08000917 0.15210535 1.2689277
0.082663625 0.15741265 1.2691832
0.086031154 0.16152838 1.2669836
0.088875942 0.16631241 1.2699931
0.092212908 0.16862199 1.2675219
0.096536025 0.17200935 1.2665827
0.1008953 0.17459273 1.2662271
0.1516694 0.17271024 1.2652909
0.099429339 0.17510122 1.2699149
0.10360392 0.17648005 1.2671793
0.1071447 0.17828305 1.2675133
0.11321175 0.17991014 1.2666024
0.13591607 0.17975996 1.2655451
0.14219202 0.17817757 1.2667634
0.14678375 0.17666787 1.2685279
0.11165567 0.1802316 1.2688655
0.11879235 0.18214826 1.2699692
0.1221574 0.18191896 1.2683705
0.12741862 0.18189991 1.2682376
0.13111401 0.18215166 1.2699929
0.13799927 0.18019013 1.2685735
0.078345977 0.14876932 1.2704723
0.080310322 0.15444292 1.2737039
0.082078189 0.15797845 1.2737474
0.083915897 0.16164851 1.2748501
0.086400121 0.1639844 1.2724174
0.092433184 0.169901 1.2705072
0.094250105 0.17176421 1.2712665
0.096069194 0.17362964 1.2720265
0.097954817 0.17561269 1.2736243
0.10313971 0.17807104 1.2722756
0.1085268 0.180878 1.2734163
0.11196737 0.18161441 1.272388
0.1162622 0.1823207 1.2711715
0.13390186 0.18235269 1.2713946
