# .PCD v0.7 - Point Cloud Data file format
VERSION 0.7
FIELDS x y z
SIZE 4 4 4
TYPE F F F
COUNT 1 1 1
WIDTH 1768
HEIGHT 1
VIEWPOINT 0 0 0 1 0 0 0
POINTS 1768
DATA ascii
0.66620946 0.40845603 1.5
0.66828811 0.40845603 1.5
0.67036676 0.40845603 1.5
0.67244542 0.40845603 1.5
0.67452407 0.40845603 1.5
0.67660272 0.40845603 1.5
0.67868137 0.40845603 1.5
0.68076003 0.40845603 1.5
0.68283868 0.40845603 1.5
0.68491733 0.40845603 1.5
0.68699598 0.40845603 1.5
0.68907464 0.40845603 1.5
0.69115329 0.40845603 1.5
0.69323194 0.40845603 1.5
0.69531065 0.40845603 1.5
0.6973893 0.40845603 1.5
0.69946796 0.40845603 1.5
0.70154661 0.40845603 1.5
0.70362526 0.40845603 1.5
0.70570391 0.40845603 1.5
0.70778257 0.40845603 1.5
0.70986122 0.40845603 1.5
0.71193987 0.40845603 1.5
0.71401852 0.40845603 1.5
0.71609718 0.40845603 1.5
0.71817583 0.40845603 1.5
0.72025448 0.40845603 1.5
0.72233313 0.40845603 1.5
0.72441185 0.40845603 1.5
0.7264905 0.40845603 1.5
0.72856915 0.40845603 1.5
0.7306478 0.40845603 1.5
0.73272645 0.40845603 1.5
0.73480511 0.40845603 1.5
0.73688376 0.40845603 1.5
0.73896241 0.40845603 1.5
0.74104106 0.40845603 1.5
0.74311972 0.40845603 1.5
0.74519837 0.40845603 1.5
0.74727702 0.40845603 1.5
0.74935567 0.40845603 1.5
0.75143433 0.40845603 1.5
0.75351304 0.40845603 1.5
0.75481147 0.40803424 1.4984511
0.75484407 0.40693238 1.4944047
0.75487638 0.4058364 1.4903798
0.75490856 0.40474632 1.4863766
0.7549659 0.40367565 1.4824448
0.75506407 0.40263253 1.4786141
0.75516188 0.40159491 1.4748034
0.75525922 0.40056255 1.4710124
0.75535578 0.39953542 1.4672403
0.7554521 0.39851364 1.463488
0.7555477 0.397497 1.4597545
0.75564307 0.3964856 1.4560403
0.75573766 0.39547923 1.4523445
0.75583231 0.3944782 1.4486684
0.75592601 0.393482 1.4450099
0.75601918 0.3924908 1.4413699
0.75615859 0.39152876 1.4378369
0.75631678 0.39058146 1.4343581
0.75647432 0.38963881 1.4308963
0.75663096 0.3887006 1.4274509
0.75678688 0.38776696 1.4240222
0.75694209 0.38683775 1.4206098
0.75709653 0.38591301 1.4172138
0.75725013 0.38499263 1.4138339
0.75740314 0.38407668 1.4104701
0.75755531 0.38316503 1.4071223
0.75770676 0.3822577 1.4037902
0.7578575 0.38135469 1.400474
0.75806999 0.38048723 1.3972884
0.75829053 0.37962827 1.3941339
0.75851029 0.37877324 1.390994
0.75872886 0.37792197 1.3878678
0.75894654 0.37707457 1.3847558
0.75916326 0.37623098 1.3816578
0.75937897 0.3753911 1.3785735
0.75959373 0.37455499 1.3755031
0.75980759 0.37372264 1.3724463
-0.8304233 0.41053468 1.5
-0.82834464 0.41053468 1.5
-0.82626599 0.41053468 1.5
-0.82418734 0.41053468 1.5
-0.82210869 0.41053468 1.5
-0.82003003 0.41053468 1.5
-0.81795138 0.41053468 1.5
-0.81587273 0.41053468 1.5
-0.81379408 0.41053468 1.5
-0.81171536 0.41053468 1.5
-0.80963671 0.41053468 1.5
-0.80755806 0.41053468 1.5
-0.80547941 0.41053468 1.5
-0.80340075 0.41053468 1.5
-0.8013221 0.41053468 1.5
-0.79924345 0.41053468 1.5
-0.7971648 0.41053468 1.5
-0.79508615 0.41053468 1.5
-0.79300749 0.41053468 1.5
-0.79092884 0.41053468 1.5
-0.78885019 0.41053468 1.5
-0.78677154 0.41053468 1.5
-0.78469288 0.41053468 1.5
-0.78261417 0.41053468 1.5
-0.78053552 0.41053468 1.5
-0.77845687 0.41053468 1.5
-0.77637821 0.41053468 1.5
-0.77429956 0.41053468 1.5
-0.77222091 0.41053468 1.5
-0.77014226 0.41053468 1.5
-0.7680636 0.41053468 1.5
-0.76598495 0.41053468 1.5
-0.7639063 0.41053468 1.5
-0.76182765 0.41053468 1.5
-0.759749 0.41053468 1.5
-0.75767034 0.41053468 1.5
-0.75559169 0.41053468 1.5
-0.75351304 0.41053468 1.5
-0.75143433 0.41053468 1.5
-0.74935567 0.41053468 1.5
-0.74727702 0.41053468 1.5
-0.74519837 0.41053468 1.5
-0.74311972 0.41053468 1.5
-0.74104106 0.41053468 1.5
-0.73896241 0.41053468 1.5
-0.73688376 0.41053468 1.5
-0.73480511 0.41053468 1.5
-0.73272645 0.41053468 1.5
-0.7306478 0.41053468 1.5
-0.72856915 0.41053468 1.5
-0.7264905 0.41053468 1.5
-0.72441185 0.41053468 1.5
-0.72233313 0.41053468 1.5
-0.72025448 0.41053468 1.5
-0.71817583 0.41053468 1.5
-0.71609718 0.41053468 1.5
-0.71401852 0.41053468 1.5
-0.71193987 0.41053468 1.5
-0.70986122 0.41053468 1.5
-0.70778257 0.41053468 1.5
-0.70570391 0.41053468 1.5
-0.70362526 0.41053468 1.5
-0.70154661 0.41053468 1.5
-0.69946796 0.41053468 1.5
-0.6973893 0.41053468 1.5
-0.69531065 0.41053468 1.5
-0.69323194 0.41053468 1.5
-0.69115329 0.41053468 1.5
-0.68907464 0.41053468 1.5
-0.68699598 0.41053468 1.5
-0.68491733 0.41053468 1.5
-0.68283868 0.41053468 1.5
-0.68076003 0.41053468 1.5
-0.67868137 0.41053468 1.5
-0.67660272 0.41053468 1.5
-0.67452407 0.41053468 1.5
-0.67244542 0.41053468 1.5
-0.67036676 0.41053468 1.5
-0.66828811 0.41053468 1.5
-0.66620946 0.41053468 1.5
-0.66413075 0.41053468 1.5
-0.66205209 0.41053468 1.5
-0.65997344 0.41053468 1.5
-0.65789479 0.41053468 1.5
-0.65581614 0.41053468 1.5
-0.65373749 0.41053468 1.5
-0.65165883 0.41053468 1.5
-0.64958018 0.41053468 1.5
-0.64750153 0.41053468 1.5
-0.64542288 0.41053468 1.5
-0.64334422 0.41053468 1.5
-0.64126557 0.41053468 1.5
-0.63918692 0.41053468 1.5
-0.63710827 0.41053468 1.5
-0.63502955 0.41053468 1.5
-0.6329509 0.41053468 1.5
-0.63087225 0.41053468 1.5
-0.58693188 0.38320348 1.400138
-0.584665 0.3829895 1.3993562
-0.5833351 0.38338995 1.4008194
-0.58200228 0.38379118 1.4022853
-0.5810535 0.38444912 1.4046893
-0.58025795 0.38521326 1.4074813
-0.57945919 0.3859804 1.4102843
-0.57865727 0.38675064 1.4130986
-0.57785457 0.38752559 1.41593
-0.57729894 0.38847205 1.4193882
-0.57674032 0.38942298 1.4228626
-0.57617921 0.39037871 1.4263548
-0.57561547 0.39133924 1.4298643
-0.5750488 0.39230445 1.433391
-0.57447922 0.39327434 1.4369347
-0.57404172 0.39434168 1.4408345
-0.57362574 0.39543134 1.4448159
-0.5732075 0.39652705 1.4488194
-0.57278687 0.39762881 1.452845
-0.57236385 0.39873672 1.456893
-0.57193863 0.3998509 1.460964
-0.57151097 0.40097129 1.4650576
-0.57115507 0.40215018 1.469365
-0.57084215 0.40336788 1.4738141
-0.57052714 0.40459287 1.47829
-0.57021034 0.40582538 1.4827933
-0.56989151 0.40706536 1.4873239
-0.56957084 0.40831301 1.4918826
-0.5692482 0.40956837 1.4964694
-0.56851256 0.41053468 1.5
-0.56643391 0.41053468 1.5
-0.56435525 0.41053468 1.5
-0.5622766 0.41053468 1.5
-0.56019795 0.41053468 1.5
-0.5581193 0.41053468 1.5
-0.55604064 0.41053468 1.5
-0.55396199 0.41053468 1.5
-0.55188334 0.41053468 1.5
-0.54980469 0.41053468 1.5
-0.54772604 0.41053468 1.5
-0.54564732 0.41053468 1.5
-0.54356867 0.41053468 1.5
-0.54149002 0.41053468 1.5
-0.53941137 0.41053468 1.5
-0.53733271 0.41053468 1.5
-0.53525406 0.41053468 1.5
-0.53317541 0.41053468 1.5
-0.53109676 0.41053468 1.5
-0.5290181 0.41053468 1.5
-0.52693945 0.41053468 1.5
-0.5248608 0.41053468 1.5
-0.52278215 0.41053468 1.5
-0.52070349 0.41053468 1.5
-0.51862484 0.41053468 1.5
-0.51654613 0.41053468 1.5
-0.51446748 0.41053468 1.5
-0.51238883 0.41053468 1.5
-0.51031017 0.41053468 1.5
-0.50823152 0.41053468 1.5
-0.50615287 0.41053468 1.5
-0.50407422 0.41053468 1.5
-0.50199556 0.41053468 1.5
-0.49991691 0.41053468 1.5
-0.49783826 0.41053468 1.5
-0.49575961 0.41053468 1.5
-0.49368092 0.41053468 1.5
-0.49160227 0.41053468 1.5
-0.48952362 0.41053468 1.5
-0.48744497 0.41053468 1.5
-0.48536631 0.41053468 1.5
-0.48328766 0.41053468 1.5
-0.48120901 0.41053468 1.5
-0.47913033 0.41053468 1.5
-0.47705168 0.41053468 1.5
-0.47497302 0.41053468 1.5
-0.47289437 0.41053468 1.5
-0.47081572 0.41053468 1.5
-0.46873707 0.41053468 1.5
-0.46665841 0.41053468 1.5
-0.46457973 0.41053468 1.5
-0.46250108 0.41053468 1.5
-0.46042243 0.41053468 1.5
-0.45834377 0.41053468 1.5
-0.45626512 0.41053468 1.5
-0.45418647 0.41053468 1.5
-0.45210782 0.41053468 1.5
-0.45002913 0.41053468 1.5
-0.44795048 0.41053468 1.5
-0.44587183 0.41053468 1.5
-0.44379318 0.41053468 1.5
-0.44171453 0.41053468 1.5
-0.43963587 0.41053468 1.5
-0.43755722 0.41053468 1.5
-0.43547854 0.41053468 1.5
-0.43339989 0.41053468 1.5
-0.43132123 0.41053468 1.5
-0.42924258 0.41053468 1.5
-0.42716393 0.41053468 1.5
-0.42508528 0.41053468 1.5
-0.42300662 0.41053468 1.5
-0.42092794 0.41053468 1.5
-0.41884929 0.41053468 1.5
-0.41677064 0.41053468 1.5
-0.41469198 0.41053468 1.5
-0.41261333 0.41053468 1.5
-0.41053468 0.41053468 1.5
-0.40845603 0.41053468 1.5
-0.40637738 0.41053468 1.5
-0.40429869 0.41053468 1.5
-0.40222004 0.41053468 1.5
-0.40014139 0.41053468 1.5
-0.39806274 0.41053468 1.5
-0.39598408 0.41053468 1.5
-0.39390543 0.41053468 1.5
-0.39182678 0.41053468 1.5
-0.3897481 0.41053468 1.5
-0.38766944 0.41053468 1.5
-0.38559079 0.41053468 1.5
-0.38351214 0.41053468 1.5
-0.38143349 0.41053468 1.5
-0.37935483 0.41053468 1.5
-0.37727618 0.41053468 1.5
-0.3751975 0.41053468 1.5
-0.37311885 0.41053468 1.5
-0.3710402 0.41053468 1.5
-0.36896154 0.41053468 1.5
-0.36688289 0.41053468 1.5
-0.36480424 0.41053468 1.5
-0.36272559 0.41053468 1.5
-0.3606469 0.41053468 1.5
-0.35856825 0.41053468 1.5
-0.3564896 0.41053468 1.5
-0.35441095 0.41053468 1.5
-0.35233229 0.41053468 1.5
-0.35025364 0.41053468 1.5
-0.34817499 0.41053468 1.5
-0.34609631 0.41053468 1.5
-0.34401765 0.41053468 1.5
-0.341939 0.41053468 1.5
-0.33986035 0.41053468 1.5
-0.3377817 0.41053468 1.5
-0.33570305 0.41053468 1.5
-0.33362439 0.41053468 1.5
-0.33154571 0.41053468 1.5
-0.32946706 0.41053468 1.5
-0.32738841 0.41053468 1.5
-0.32530975 0.41053468 1.5
-0.3232311 0.41053468 1.5
-0.32115245 0.41053468 1.5
-0.3190738 0.41053468 1.5
-0.31699511 0.41053468 1.5
-0.31491646 0.41053468 1.5
-0.31283781 0.41053468 1.5
-0.31075916 0.41053468 1.5
-0.3086805 0.41053468 1.5
-0.30660185 0.41053468 1.5
-0.3045232 0.41053468 1.5
-0.30244452 0.41053468 1.5
-0.30036587 0.41053468 1.5
-0.29828721 0.41053468 1.5
-0.29620856 0.41053468 1.5
-0.29412991 0.41053468 1.5
-0.29205126 0.41053468 1.5
-0.2899726 0.41053468 1.5
-0.28789392 0.41053468 1.5
-0.28581527 0.41053468 1.5
-0.28373662 0.41053468 1.5
-0.28165796 0.41053468 1.5
-0.27957931 0.41053468 1.5
-0.27750066 0.41053468 1.5
-0.27542201 0.41053468 1.5
-0.27334335 0.41053468 1.5
-0.27126467 0.41053468 1.5
-0.26918602 0.41053468 1.5
-0.26710737 0.41053468 1.5
-0.26502872 0.41053468 1.5
-0.26295006 0.41053468 1.5
-0.26087141 0.41053468 1.5
-0.25879276 0.41053468 1.5
-0.25671408 0.41053468 1.5
-0.25463542 0.41053468 1.5
-0.25255677 0.41053468 1.5
-0.25047812 0.41053468 1.5
-0.24839947 0.41053468 1.5
-0.2463208 0.41053468 1.5
-0.24424215 0.41053468 1.5
-0.24216349 0.41053468 1.5
-0.24008483 0.41053468 1.5
-0.23800617 0.41053468 1.5
-0.23592752 0.41053468 1.5
-0.23384887 0.41053468 1.5
-0.2317702 0.41053468 1.5
-0.22969155 0.41053468 1.5
-0.2276129 0.41053468 1.5
-0.22553425 0.41053468 1.5
-0.22345558 0.41053468 1.5
-0.22137693 0.41053468 1.5
-0.21929827 0.41053468 1.5
-0.21721961 0.41053468 1.5
-0.21514095 0.41053468 1.5
-0.2130623 0.41053468 1.5
-0.21098365 0.41053468 1.5
-0.20890498 0.41053468 1.5
-0.20682633 0.41053468 1.5
-0.20474768 0.41053468 1.5
-0.20266901 0.41053468 1.5
-0.20059036 0.41053468 1.5
-0.1985117 0.41053468 1.5
-0.19643305 0.41053468 1.5
-0.19435439 0.41053468 1.5
-0.19227573 0.41053468 1.5
-0.19019708 0.41053468 1.5
-0.18811841 0.41053468 1.5
-0.18603976 0.41053468 1.5
-0.18396111 0.41053468 1.5
-0.18188246 0.41053468 1.5
-0.17980379 0.41053468 1.5
-0.17772514 0.41053468 1.5
-0.17564648 0.41053468 1.5
-0.17356782 0.41053468 1.5
-0.17148916 0.41053468 1.5
-0.16941051 0.41053468 1.5
-0.16733186 0.41053468 1.5
-0.16525319 0.41053468 1.5
-0.16317454 0.41053468 1.5
-0.16109589 0.41053468 1.5
-0.15901724 0.41053468 1.5
-0.15693857 0.41053468 1.5
-0.15485992 0.41053468 1.5
-0.15278126 0.41053468 1.5
-0.1507026 0.41053468 1.5
-0.14862394 0.41053468 1.5
-0.14654529 0.41053468 1.5
-0.14446664 0.41053468 1.5
-0.14238797 0.41053468 1.5
-0.14030932 0.41053468 1.5
-0.13823067 0.41053468 1.5
-0.136152 0.41053468 1.5
-0.13407335 0.41053468 1.5
-0.13199469 0.41053468 1.5
-0.12991604 0.41053468 1.5
-0.12783737 0.41053468 1.5
-0.12575872 0.41053468 1.5
-0.12368006 0.41053468 1.5
-0.12160141 0.41053468 1.5
-0.11952275 0.41053468 1.5
-0.1174441 0.41053468 1.5
-0.11536544 0.41053468 1.5
-0.11328679 0.41053468 1.5
-0.11120813 0.41053468 1.5
-0.10912947 0.41053468 1.5
-0.10705081 0.41053468 1.5
-0.10497215 0.41053468 1.5
-0.1028935 0.41053468 1.5
-0.10081484 0.41053468 1.5
-0.098736189 0.41053468 1.5
-0.096657529 0.41053468 1.5
-0.094578877 0.41053468 1.5
-0.092500217 0.41053468 1.5
-0.090421557 0.41053468 1.5
-0.088342905 0.41053468 1.5
-0.086264245 0.41053468 1.5
-0.084185593 0.41053468 1.5
-0.082106933 0.41053468 1.5
-0.080028281 0.41053468 1.5
-0.077949621 0.41053468 1.5
-0.075870968 0.41053468 1.5
-0.073792309 0.41053468 1.5
-0.071713649 0.41053468 1.5
-0.069634996 0.41053468 1.5
-0.067556337 0.41053468 1.5
-0.065477684 0.41053468 1.5
-0.063399024 0.41053468 1.5
-0.061320368 0.41053468 1.5
-0.059241712 0.41053468 1.5
-0.057163056 0.41053468 1.5
-0.0550844 0.41053468 1.5
-0.053005744 0.41053468 1.5
-0.050927088 0.41053468 1.5
-0.048848428 0.41053468 1.5
-0.046769772 0.41053468 1.5
-0.044691116 0.41053468 1.5
-0.04261246 0.41053468 1.5
-0.040533803 0.41053468 1.5
-0.038455147 0.41053468 1.5
-0.036376491 0.41053468 1.5
-0.034297835 0.41053468 1.5
-0.032219175 0.41053468 1.5
-0.030140521 0.41053468 1.5
-0.028061863 0.41053468 1.5
-0.025983207 0.41053468 1.5
-0.023904551 0.41053468 1.5
-0.021825895 0.41053468 1.5
-0.019747237 0.41053468 1.5
-0.017668581 0.41053468 1.5
-0.015589925 0.41053468 1.5
-0.013511267 0.41053468 1.5
-0.011432611 0.41053468 1.5
-0.0093539543 0.41053468 1.5
-0.0072752982 0.41053468 1.5
-0.0051966417 0.41053468 1.5
-0.0031179849 0.41053468 1.5
-0.0010393283 0.41053468 1.5
0.0010393283 0.41053468 1.5
0.0031179849 0.41053468 1.5
0.0051966417 0.41053468 1.5
0.0072752982 0.41053468 1.5
0.0093539543 0.41053468 1.5
0.011432611 0.41053468 1.5
0.013511267 0.41053468 1.5
0.015589925 0.41053468 1.5
0.017668581 0.41053468 1.5
0.019747237 0.41053468 1.5
0.021825895 0.41053468 1.5
0.023904551 0.41053468 1.5
0.025983207 0.41053468 1.5
0.028061863 0.41053468 1.5
0.030140521 0.41053468 1.5
0.032219175 0.41053468 1.5
0.034297835 0.41053468 1.5
0.036376491 0.41053468 1.5
0.038455147 0.41053468 1.5
0.040533803 0.41053468 1.5
0.04261246 0.41053468 1.5
0.044691116 0.41053468 1.5
0.046769772 0.41053468 1.5
0.048848428 0.41053468 1.5
0.050927088 0.41053468 1.5
0.053005744 0.41053468 1.5
0.0550844 0.41053468 1.5
0.057163056 0.41053468 1.5
0.059241712 0.41053468 1.5
0.061320368 0.41053468 1.5
0.063399024 0.41053468 1.5
0.065477684 0.41053468 1.5
0.067556337 0.41053468 1.5
0.069634996 0.41053468 1.5
0.071713649 0.41053468 1.5
0.073792309 0.41053468 1.5
0.075870968 0.41053468 1.5
0.077949621 0.41053468 1.5
0.080028281 0.41053468 1.5
0.082106933 0.41053468 1.5
0.084185593 0.41053468 1.5
0.086264245 0.41053468 1.5
0.088342905 0.41053468 1.5
0.090421557 0.41053468 1.5
0.092500217 0.41053468 1.5
0.094578877 0.41053468 1.5
0.096657529 0.41053468 1.5
0.098736189 0.41053468 1.5
0.10081484 0.41053468 1.5
0.1028935 0.41053468 1.5
0.10497215 0.41053468 1.5
0.10705081 0.41053468 1.5
0.10912947 0.41053468 1.5
0.11120813 0.41053468 1.5
0.11328679 0.41053468 1.5
0.11536544 0.41053468 1.5
0.1174441 0.41053468 1.5
0.11952275 0.41053468 1.5
0.12160141 0.41053468 1.5
0.12368006 0.41053468 1.5
0.12575872 0.41053468 1.5
0.12783737 0.41053468 1.5
0.12991604 0.41053468 1.5
0.13199469 0.41053468 1.5
0.13407335 0.41053468 1.5
0.136152 0.41053468 1.5
0.13823067 0.41053468 1.5
0.14030932 0.41053468 1.5
0.14238797 0.41053468 1.5
0.14446664 0.41053468 1.5
0.14654529 0.41053468 1.5
0.14862394 0.41053468 1.5
0.1507026 0.41053468 1.5
0.15278126 0.41053468 1.5
0.15485992 0.41053468 1.5
0.15693857 0.41053468 1.5
0.15901724 0.41053468 1.5
0.16109589 0.41053468 1.5
0.16317454 0.41053468 1.5
0.16525319 0.41053468 1.5
0.16733186 0.41053468 1.5
0.16941051 0.41053468 1.5
0.17148916 0.41053468 1.5
0.17356782 0.41053468 1.5
0.17564648 0.41053468 1.5
0.17772514 0.41053468 1.5
0.17980379 0.41053468 1.5
0.18188246 0.41053468 1.5
0.18396111 0.41053468 1.5
0.18603976 0.41053468 1.5
0.18811841 0.41053468 1.5
0.19019708 0.41053468 1.5
0.19227573 0.41053468 1.5
0.19435439 0.41053468 1.5
0.19643305 0.41053468 1.5
0.1985117 0.41053468 1.5
0.20059036 0.41053468 1.5
0.20266901 0.41053468 1.5
0.20474768 0.41053468 1.5
0.20682633 0.41053468 1.5
0.20890498 0.41053468 1.5
0.21098365 0.41053468 1.5
0.2130623 0.41053468 1.5
0.21514095 0.41053468 1.5
0.21721961 0.41053468 1.5
0.21929827 0.41053468 1.5
0.22137693 0.41053468 1.5
0.22345558 0.41053468 1.5
0.22553425 0.41053468 1.5
0.2276129 0.41053468 1.5
0.22969155 0.41053468 1.5
0.2317702 0.41053468 1.5
0.23384887 0.41053468 1.5
0.23592752 0.41053468 1.5
0.23800617 0.41053468 1.5
0.24008483 0.41053468 1.5
0.24216349 0.41053468 1.5
0.24424215 0.41053468 1.5
0.2463208 0.41053468 1.5
0.24839947 0.41053468 1.5
0.25047812 0.41053468 1.5
0.25255677 0.41053468 1.5
0.25463542 0.41053468 1.5
0.25671408 0.41053468 1.5
0.25879276 0.41053468 1.5
0.26087141 0.41053468 1.5
0.26295006 0.41053468 1.5
0.26502872 0.41053468 1.5
0.26710737 0.41053468 1.5
0.26918602 0.41053468 1.5
0.27126467 0.41053468 1.5
0.27334335 0.41053468 1.5
0.27542201 0.41053468 1.5
0.27750066 0.41053468 1.5
0.27957931 0.41053468 1.5
0.28165796 0.41053468 1.5
0.28373662 0.41053468 1.5
0.28581527 0.41053468 1.5
0.28789392 0.41053468 1.5
0.2899726 0.41053468 1.5
0.29205126 0.41053468 1.5
0.29412991 0.41053468 1.5
0.29620856 0.41053468 1.5
0.29828721 0.41053468 1.5
0.30036587 0.41053468 1.5
0.30244452 0.41053468 1.5
0.3045232 0.41053468 1.5
0.30660185 0.41053468 1.5
0.3086805 0.41053468 1.5
0.31075916 0.41053468 1.5
0.31283781 0.41053468 1.5
0.31491646 0.41053468 1.5
0.31699511 0.41053468 1.5
0.3190738 0.41053468 1.5
0.32115245 0.41053468 1.5
0.3232311 0.41053468 1.5
0.32530975 0.41053468 1.5
0.32738841 0.41053468 1.5
0.32946706 0.41053468 1.5
0.33154571 0.41053468 1.5
0.33362439 0.41053468 1.5
0.33570305 0.41053468 1.5
0.3377817 0.41053468 1.5
0.33986035 0.41053468 1.5
0.341939 0.41053468 1.5
0.34401765 0.41053468 1.5
0.34609631 0.41053468 1.5
0.34817499 0.41053468 1.5
0.35025364 0.41053468 1.5
0.35233229 0.41053468 1.5
0.35441095 0.41053468 1.5
0.3564896 0.41053468 1.5
0.35856825 0.41053468 1.5
0.3606469 0.41053468 1.5
0.36272559 0.41053468 1.5
0.36480424 0.41053468 1.5
0.36688289 0.41053468 1.5
0.36896154 0.41053468 1.5
0.3710402 0.41053468 1.5
0.37311885 0.41053468 1.5
0.3751975 0.41053468 1.5
0.37727618 0.41053468 1.5
0.37935483 0.41053468 1.5
0.38143349 0.41053468 1.5
0.38351214 0.41053468 1.5
0.38559079 0.41053468 1.5
0.38766944 0.41053468 1.5
0.3897481 0.41053468 1.5
0.39182678 0.41053468 1.5
0.39390543 0.41053468 1.5
0.39598408 0.41053468 1.5
0.39806274 0.41053468 1.5
0.40014139 0.41053468 1.5
0.40222004 0.41053468 1.5
0.40429869 0.41053468 1.5
0.40637738 0.41053468 1.5
0.40845603 0.41053468 1.5
0.41053468 0.41053468 1.5
0.41261333 0.41053468 1.5
0.41469198 0.41053468 1.5
0.41677064 0.41053468 1.5
0.41884929 0.41053468 1.5
0.42092794 0.41053468 1.5
0.42300662 0.41053468 1.5
0.42508528 0.41053468 1.5
0.42716393 0.41053468 1.5
0.42924258 0.41053468 1.5
0.43132123 0.41053468 1.5
0.43339989 0.41053468 1.5
0.43547854 0.41053468 1.5
0.43755722 0.41053468 1.5
0.43963587 0.41053468 1.5
0.44171453 0.41053468 1.5
0.44379318 0.41053468 1.5
0.44587183 0.41053468 1.5
0.44795048 0.41053468 1.5
0.45002913 0.41053468 1.5
0.45210782 0.41053468 1.5
0.45418647 0.41053468 1.5
0.45626512 0.41053468 1.5
0.45834377 0.41053468 1.5
0.46042243 0.41053468 1.5
0.46250108 0.41053468 1.5
0.46457973 0.41053468 1.5
0.46665841 0.41053468 1.5
0.46873707 0.41053468 1.5
0.47081572 0.41053468 1.5
0.47289437 0.41053468 1.5
0.47497302 0.41053468 1.5
0.47705168 0.41053468 1.5
0.47913033 0.41053468 1.5
0.48120901 0.41053468 1.5
0.48328766 0.41053468 1.5
0.48536631 0.41053468 1.5
0.48744497 0.41053468 1.5
0.48952362 0.41053468 1.5
0.49160227 0.41053468 1.5
0.49368092 0.41053468 1.5
0.49575961 0.41053468 1.5
0.49783826 0.41053468 1.5
0.49991691 0.41053468 1.5
0.50199556 0.41053468 1.5
0.50407422 0.41053468 1.5
0.50615287 0.41053468 1.5
0.50823152 0.41053468 1.5
0.51031017 0.41053468 1.5
0.51238883 0.41053468 1.5
0.51446748 0.41053468 1.5
0.51654613 0.41053468 1.5
0.51862484 0.41053468 1.5
0.52070349 0.41053468 1.5
0.52278215 0.41053468 1.5
0.5248608 0.41053468 1.5
0.52693945 0.41053468 1.5
0.5290181 0.41053468 1.5
0.53109676 0.41053468 1.5
0.53317541 0.41053468 1.5
0.53525406 0.41053468 1.5
0.53733271 0.41053468 1.5
0.53941137 0.41053468 1.5
0.54149002 0.41053468 1.5
0.54356867 0.41053468 1.5
0.54564732 0.41053468 1.5
0.54772604 0.41053468 1.5
0.54980469 0.41053468 1.5
0.55188334 0.41053468 1.5
0.55396199 0.41053468 1.5
0.55604064 0.41053468 1.5
0.5581193 0.41053468 1.5
0.56019795 0.41053468 1.5
0.5622766 0.41053468 1.5
0.56435525 0.41053468 1.5
0.56643391 0.41053468 1.5
0.56851256 0.41053468 1.5
0.57059121 0.41053468 1.5
0.57266986 0.41053468 1.5
0.57474852 0.41053468 1.5
0.57682723 0.41053468 1.5
0.57890588 0.41053468 1.5
0.58098453 0.41053468 1.5
0.58306319 0.41053468 1.5
0.58514184 0.41053468 1.5
0.58722049 0.41053468 1.5
0.58929914 0.41053468 1.5
0.59137779 0.41053468 1.5
0.59345645 0.41053468 1.5
0.5955351 0.41053468 1.5
0.59761375 0.41053468 1.5
0.5996924 0.41053468 1.5
0.60177106 0.41053468 1.5
0.60384971 0.41053468 1.5
0.60592842 0.41053468 1.5
0.60800707 0.41053468 1.5
0.61008573 0.41053468 1.5
0.61216438 0.41053468 1.5
0.61424303 0.41053468 1.5
0.61632168 0.41053468 1.5
0.61840034 0.41053468 1.5
0.62047899 0.41053468 1.5
0.62255764 0.41053468 1.5
0.62463629 0.41053468 1.5
0.62671494 0.41053468 1.5
0.6287936 0.41053468 1.5
0.63087225 0.41053468 1.5
0.6329509 0.41053468 1.5
0.63502955 0.41053468 1.5
0.63710827 0.41053468 1.5
0.63918692 0.41053468 1.5
0.64126557 0.41053468 1.5
0.64334422 0.41053468 1.5
0.64542288 0.41053468 1.5
0.64750153 0.41053468 1.5
0.64958018 0.41053468 1.5
0.65165883 0.41053468 1.5
0.65373749 0.41053468 1.5
0.65581614 0.41053468 1.5
0.65789479 0.41053468 1.5
0.65997344 0.41053468 1.5
0.66205209 0.41053468 1.5
0.66413075 0.41053468 1.5
0.66620946 0.41053468 1.5
0.66828811 0.41053468 1.5
0.67036676 0.41053468 1.5
0.67244542 0.41053468 1.5
0.67452407 0.41053468 1.5
0.67660272 0.41053468 1.5
0.67868137 0.41053468 1.5
0.68076003 0.41053468 1.5
0.68283868 0.41053468 1.5
0.68491733 0.41053468 1.5
0.68699598 0.41053468 1.5
0.68907464 0.41053468 1.5
0.69115329 0.41053468 1.5
0.69323194 0.41053468 1.5
0.69531065 0.41053468 1.5
0.6973893 0.41053468 1.5
0.69946796 0.41053468 1.5
0.70154661 0.41053468 1.5
0.70362526 0.41053468 1.5
0.70570391 0.41053468 1.5
0.70778257 0.41053468 1.5
0.70986122 0.41053468 1.5
0.71193987 0.41053468 1.5
0.71401852 0.41053468 1.5
0.71609718 0.41053468 1.5
0.71817583 0.41053468 1.5
0.72025448 0.41053468 1.5
0.72233313 0.41053468 1.5
0.72441185 0.41053468 1.5
0.7264905 0.41053468 1.5
0.72856915 0.41053468 1.5
0.7306478 0.41053468 1.5
0.73272645 0.41053468 1.5
0.73480511 0.41053468 1.5
0.73688376 0.41053468 1.5
0.73896241 0.41053468 1.5
0.74104106 0.41053468 1.5
0.74311972 0.41053468 1.5
0.74519837 0.41053468 1.5
0.74727702 0.41053468 1.5
0.74935567 0.41053468 1.5
0.75143433 0.41053468 1.5
0.75351304 0.41053468 1.5
0.75512093 0.41027892 1.4990655
0.75521976 0.40920687 1.4951485
0.75531828 0.40814051 1.4912523
0.7554161 0.40707961 1.487376
0.75551355 0.40602428 1.48352
0.75561041 0.40497437 1.4796839
0.75570673 0.40392986 1.4758675
0.75580281 0.40289083 1.4720712
0.75589818 0.40185705 1.4682939
0.75599313 0.40082857 1.4645361
0.75611633 0.39982054 1.460853
0.75627708 0.39883775 1.457262
0.75643718 0.39785975 1.4536887
0.75659651 0.39688662 1.4501331
0.75675493 0.39591816 1.4465946
0.75691265 0.39495441 1.4430733
0.75706971 0.39399543 1.4395694
0.75722581 0.39304101 1.4360821
0.7573812 0.39209118 1.4326117
0.75753587 0.39114597 1.4291581
0.75768948 0.39020514 1.4257206
0.75784284 0.38926908 1.4223003
0.75805163 0.38836625 1.4190017
0.75827587 0.38747603 1.415749
0.75849891 0.38658977 1.4125108
0.75872093 0.38570756 1.4092873
0.75894195 0.38482937 1.4060787
0.75916207 0.38395521 1.4028847
0.75938106 0.38308495 1.3997049
0.75959915 0.38221869 1.3965398
0.75981623 0.3813563 1.3933889
0.76003224 0.38049775 1.390252
0.76024741 0.37964314 1.3871294
0.76050776 0.37881535 1.3841048
0.76080811 0.37801158 1.381168
0.76110727 0.37721124 1.3782438
0.76140505 0.37641424 1.3753318
-0.8304233 0.41261333 1.5
-0.82834464 0.41261333 1.5
-0.82626599 0.41261333 1.5
-0.82418734 0.41261333 1.5
-0.82210869 0.41261333 1.5
-0.82003003 0.41261333 1.5
-0.81795138 0.41261333 1.5
-0.81587273 0.41261333 1.5
-0.81379408 0.41261333 1.5
-0.81171536 0.41261333 1.5
-0.80963671 0.41261333 1.5
-0.80755806 0.41261333 1.5
-0.80547941 0.41261333 1.5
-0.80340075 0.41261333 1.5
-0.8013221 0.41261333 1.5
-0.79924345 0.41261333 1.5
-0.7971648 0.41261333 1.5
-0.79508615 0.41261333 1.5
-0.79300749 0.41261333 1.5
-0.79092884 0.41261333 1.5
-0.78885019 0.41261333 1.5
-0.78677154 0.41261333 1.5
-0.78469288 0.41261333 1.5
-0.78261417 0.41261333 1.5
-0.78053552 0.41261333 1.5
-0.77845687 0.41261333 1.5
-0.77637821 0.41261333 1.5
-0.77429956 0.41261333 1.5
-0.77222091 0.41261333 1.5
-0.77014226 0.41261333 1.5
-0.7680636 0.41261333 1.5
-0.76598495 0.41261333 1.5
-0.7639063 0.41261333 1.5
-0.76182765 0.41261333 1.5
-0.759749 0.41261333 1.5
-0.75767034 0.41261333 1.5
-0.75559169 0.41261333 1.5
-0.75351304 0.41261333 1.5
-0.75143433 0.41261333 1.5
-0.74935567 0.41261333 1.5
-0.74727702 0.41261333 1.5
-0.74519837 0.41261333 1.5
-0.74311972 0.41261333 1.5
-0.74104106 0.41261333 1.5
-0.73896241 0.41261333 1.5
-0.73688376 0.41261333 1.5
-0.73480511 0.41261333 1.5
-0.73272645 0.41261333 1.5
-0.7306478 0.41261333 1.5
-0.72856915 0.41261333 1.5
-0.7264905 0.41261333 1.5
-0.72441185 0.41261333 1.5
-0.72233313 0.41261333 1.5
-0.72025448 0.41261333 1.5
-0.71817583 0.41261333 1.5
-0.71609718 0.41261333 1.5
-0.71401852 0.41261333 1.5
-0.71193987 0.41261333 1.5
-0.70986122 0.41261333 1.5
-0.70778257 0.41261333 1.5
-0.70570391 0.41261333 1.5
-0.70362526 0.41261333 1.5
-0.70154661 0.41261333 1.5
-0.69946796 0.41261333 1.5
-0.6973893 0.41261333 1.5
-0.69531065 0.41261333 1.5
-0.69323194 0.41261333 1.5
-0.69115329 0.41261333 1.5
-0.68907464 0.41261333 1.5
-0.68699598 0.41261333 1.5
-0.68491733 0.41261333 1.5
-0.68283868 0.41261333 1.5
-0.68076003 0.41261333 1.5
-0.67868137 0.41261333 1.5
-0.67660272 0.41261333 1.5
-0.67452407 0.41261333 1.5
-0.67244542 0.41261333 1.5
-0.67036676 0.41261333 1.5
-0.66828811 0.41261333 1.5
-0.66620946 0.41261333 1.5
-0.66413075 0.41261333 1.5
-0.66205209 0.41261333 1.5
-0.65997344 0.41261333 1.5
-0.65789479 0.41261333 1.5
-0.65581614 0.41261333 1.5
-0.65373749 0.41261333 1.5
-0.65165883 0.41261333 1.5
-0.64958018 0.41261333 1.5
-0.64750153 0.41261333 1.5
-0.64542288 0.41261333 1.5
-0.64334422 0.41261333 1.5
-0.64126557 0.41261333 1.5
-0.63918692 0.41261333 1.5
-0.63710827 0.41261333 1.5
-0.63502955 0.41261333 1.5
-0.6329509 0.41261333 1.5
-0.63087225 0.41261333 1.5
-0.6287936 0.41261333 1.5
-0.62671494 0.41261333 1.5
-0.62463629 0.41261333 1.5
-0.62255764 0.41261333 1.5
-0.62047899 0.41261333 1.5
-0.58551198 0.39066935 1.4202256
-0.58416259 0.39108357 1.4217315
-0.58281094 0.39149907 1.423242
-0.58152205 0.39195967 1.4249164
-0.58071589 0.39274994 1.4277893
-0.57990658 0.39354342 1.430674
-0.57909417 0.39434028 1.4335707
-0.57827801 0.39514005 1.4364783
-0.57758421 0.39602926 1.4397109
-0.57701856 0.39701277 1.4432863
-0.57644987 0.39800104 1.446879
-0.5758785 0.39899439 1.4504901
-0.57530445 0.39999273 1.4541196
-0.57472724 0.400996 1.4577668
-0.57421541 0.40205204 1.4616059
-0.57379401 0.40317914 1.4657032
-0.5733701 0.40431246 1.4698234
-0.57294393 0.40545228 1.473967
-0.57251519 0.40659845 1.4781337
-0.57208413 0.40775117 1.4823242
-0.57165056 0.40891042 1.4865385
-0.57125175 0.41010296 1.4908739
-0.57093447 0.41136295 1.4954544
-0.57059121 0.41261333 1.5
-0.56851256 0.41261333 1.5
-0.56643391 0.41261333 1.5
-0.56435525 0.41261333 1.5
-0.5622766 0.41261333 1.5
-0.56019795 0.41261333 1.5
-0.5581193 0.41261333 1.5
-0.55604064 0.41261333 1.5
-0.55396199 0.41261333 1.5
-0.55188334 0.41261333 1.5
-0.54980469 0.41261333 1.5
-0.54772604 0.41261333 1.5
-0.54564732 0.41261333 1.5
-0.54356867 0.41261333 1.5
-0.54149002 0.41261333 1.5
-0.53941137 0.41261333 1.5
-0.53733271 0.41261333 1.5
-0.53525406 0.41261333 1.5
-0.53317541 0.41261333 1.5
-0.53109676 0.41261333 1.5
-0.5290181 0.41261333 1.5
-0.52693945 0.41261333 1.5
-0.5248608 0.41261333 1.5
-0.52278215 0.41261333 1.5
-0.52070349 0.41261333 1.5
-0.51862484 0.41261333 1.5
-0.51654613 0.41261333 1.5
-0.51446748 0.41261333 1.5
-0.51238883 0.41261333 1.5
-0.51031017 0.41261333 1.5
-0.50823152 0.41261333 1.5
-0.50615287 0.41261333 1.5
-0.50407422 0.41261333 1.5
-0.50199556 0.41261333 1.5
-0.49991691 0.41261333 1.5
-0.49783826 0.41261333 1.5
-0.49575961 0.41261333 1.5
-0.49368092 0.41261333 1.5
-0.49160227 0.41261333 1.5
-0.48952362 0.41261333 1.5
-0.48744497 0.41261333 1.5
-0.48536631 0.41261333 1.5
-0.48328766 0.41261333 1.5
-0.48120901 0.41261333 1.5
-0.47913033 0.41261333 1.5
-0.47705168 0.41261333 1.5
-0.47497302 0.41261333 1.5
-0.47289437 0.41261333 1.5
-0.47081572 0.41261333 1.5
-0.46873707 0.41261333 1.5
-0.46665841 0.41261333 1.5
-0.46457973 0.41261333 1.5
-0.46250108 0.41261333 1.5
-0.46042243 0.41261333 1.5
-0.45834377 0.41261333 1.5
-0.45626512 0.41261333 1.5
-0.45418647 0.41261333 1.5
-0.45210782 0.41261333 1.5
-0.45002913 0.41261333 1.5
-0.44795048 0.41261333 1.5
-0.44587183 0.41261333 1.5
-0.44379318 0.41261333 1.5
-0.44171453 0.41261333 1.5
-0.43963587 0.41261333 1.5
-0.43755722 0.41261333 1.5
-0.43547854 0.41261333 1.5
-0.43339989 0.41261333 1.5
-0.43132123 0.41261333 1.5
-0.42924258 0.41261333 1.5
-0.42716393 0.41261333 1.5
-0.42508528 0.41261333 1.5
-0.42300662 0.41261333 1.5
-0.42092794 0.41261333 1.5
-0.41884929 0.41261333 1.5
-0.41677064 0.41261333 1.5
-0.41469198 0.41261333 1.5
-0.41261333 0.41261333 1.5
-0.41053468 0.41261333 1.5
-0.40845603 0.41261333 1.5
-0.40637738 0.41261333 1.5
-0.40429869 0.41261333 1.5
-0.40222004 0.41261333 1.5
-0.40014139 0.41261333 1.5
-0.39806274 0.41261333 1.5
-0.39598408 0.41261333 1.5
-0.39390543 0.41261333 1.5
-0.39182678 0.41261333 1.5
-0.3897481 0.41261333 1.5
-0.38766944 0.41261333 1.5
-0.38559079 0.41261333 1.5
-0.38351214 0.41261333 1.5
-0.38143349 0.41261333 1.5
-0.37935483 0.41261333 1.5
-0.37727618 0.41261333 1.5
-0.3751975 0.41261333 1.5
-0.37311885 0.41261333 1.5
-0.3710402 0.41261333 1.5
-0.36896154 0.41261333 1.5
-0.36688289 0.41261333 1.5
-0.36480424 0.41261333 1.5
-0.36272559 0.41261333 1.5
-0.3606469 0.41261333 1.5
-0.35856825 0.41261333 1.5
-0.3564896 0.41261333 1.5
-0.35441095 0.41261333 1.5
-0.35233229 0.41261333 1.5
-0.35025364 0.41261333 1.5
-0.34817499 0.41261333 1.5
-0.34609631 0.41261333 1.5
-0.34401765 0.41261333 1.5
-0.341939 0.41261333 1.5
-0.33986035 0.41261333 1.5
-0.3377817 0.41261333 1.5
-0.33570305 0.41261333 1.5
-0.33362439 0.41261333 1.5
-0.33154571 0.41261333 1.5
-0.32946706 0.41261333 1.5
-0.32738841 0.41261333 1.5
-0.32530975 0.41261333 1.5
-0.3232311 0.41261333 1.5
-0.32115245 0.41261333 1.5
-0.3190738 0.41261333 1.5
-0.31699511 0.41261333 1.5
-0.31491646 0.41261333 1.5
-0.31283781 0.41261333 1.5
-0.31075916 0.41261333 1.5
-0.3086805 0.41261333 1.5
-0.30660185 0.41261333 1.5
-0.3045232 0.41261333 1.5
-0.30244452 0.41261333 1.5
-0.30036587 0.41261333 1.5
-0.29828721 0.41261333 1.5
-0.29620856 0.41261333 1.5
-0.29412991 0.41261333 1.5
-0.29205126 0.41261333 1.5
-0.2899726 0.41261333 1.5
-0.28789392 0.41261333 1.5
-0.28581527 0.41261333 1.5
-0.28373662 0.41261333 1.5
-0.28165796 0.41261333 1.5
-0.27957931 0.41261333 1.5
-0.27750066 0.41261333 1.5
-0.27542201 0.41261333 1.5
-0.27334335 0.41261333 1.5
-0.27126467 0.41261333 1.5
-0.26918602 0.41261333 1.5
-0.26710737 0.41261333 1.5
-0.26502872 0.41261333 1.5
-0.26295006 0.41261333 1.5
-0.26087141 0.41261333 1.5
-0.25879276 0.41261333 1.5
-0.25671408 0.41261333 1.5
-0.25463542 0.41261333 1.5
-0.25255677 0.41261333 1.5
-0.25047812 0.41261333 1.5
-0.24839947 0.41261333 1.5
-0.2463208 0.41261333 1.5
-0.24424215 0.41261333 1.5
-0.24216349 0.41261333 1.5
-0.24008483 0.41261333 1.5
-0.23800617 0.41261333 1.5
-0.23592752 0.41261333 1.5
-0.23384887 0.41261333 1.5
-0.2317702 0.41261333 1.5
-0.22969155 0.41261333 1.5
-0.2276129 0.41261333 1.5
-0.22553425 0.41261333 1.5
-0.22345558 0.41261333 1.5
-0.22137693 0.41261333 1.5
-0.21929827 0.41261333 1.5
-0.21721961 0.41261333 1.5
-0.21514095 0.41261333 1.5
-0.2130623 0.41261333 1.5
-0.21098365 0.41261333 1.5
-0.20890498 0.41261333 1.5
-0.20682633 0.41261333 1.5
-0.20474768 0.41261333 1.5
-0.20266901 0.41261333 1.5
-0.20059036 0.41261333 1.5
-0.1985117 0.41261333 1.5
-0.19643305 0.41261333 1.5
-0.19435439 0.41261333 1.5
-0.19227573 0.41261333 1.5
-0.19019708 0.41261333 1.5
-0.18811841 0.41261333 1.5
-0.18603976 0.41261333 1.5
-0.18396111 0.41261333 1.5
-0.18188246 0.41261333 1.5
-0.17980379 0.41261333 1.5
-0.17772514 0.41261333 1.5
-0.17564648 0.41261333 1.5
-0.17356782 0.41261333 1.5
-0.17148916 0.41261333 1.5
-0.16941051 0.41261333 1.5
-0.16733186 0.41261333 1.5
-0.16525319 0.41261333 1.5
-0.16317454 0.41261333 1.5
-0.16109589 0.41261333 1.5
-0.15901724 0.41261333 1.5
-0.15693857 0.41261333 1.5
-0.15485992 0.41261333 1.5
-0.15278126 0.41261333 1.5
-0.1507026 0.41261333 1.5
-0.14862394 0.41261333 1.5
-0.14654529 0.41261333 1.5
-0.14446664 0.41261333 1.5
-0.14238797 0.41261333 1.5
-0.14030932 0.41261333 1.5
-0.13823067 0.41261333 1.5
-0.136152 0.41261333 1.5
-0.13407335 0.41261333 1.5
-0.13199469 0.41261333 1.5
-0.12991604 0.41261333 1.5
-0.12783737 0.41261333 1.5
-0.12575872 0.41261333 1.5
-0.12368006 0.41261333 1.5
-0.12160141 0.41261333 1.5
-0.11952275 0.41261333 1.5
-0.1174441 0.41261333 1.5
-0.11536544 0.41261333 1.5
-0.11328679 0.41261333 1.5
-0.11120813 0.41261333 1.5
-0.10912947 0.41261333 1.5
-0.10705081 0.41261333 1.5
-0.10497215 0.41261333 1.5
-0.1028935 0.41261333 1.5
-0.10081484 0.41261333 1.5
-0.098736189 0.41261333 1.5
-0.096657529 0.41261333 1.5
-0.094578877 0.41261333 1.5
-0.092500217 0.41261333 1.5
-0.090421557 0.41261333 1.5
-0.088342905 0.41261333 1.5
-0.086264245 0.41261333 1.5
-0.084185593 0.41261333 1.5
-0.082106933 0.41261333 1.5
-0.080028281 0.41261333 1.5
-0.077949621 0.41261333 1.5
-0.075870968 0.41261333 1.5
-0.073792309 0.41261333 1.5
-0.071713649 0.41261333 1.5
-0.069634996 0.41261333 1.5
-0.067556337 0.41261333 1.5
-0.065477684 0.41261333 1.5
-0.063399024 0.41261333 1.5
-0.061320368 0.41261333 1.5
-0.059241712 0.41261333 1.5
-0.057163056 0.41261333 1.5
-0.0550844 0.41261333 1.5
-0.053005744 0.41261333 1.5
-0.050927088 0.41261333 1.5
-0.048848428 0.41261333 1.5
-0.046769772 0.41261333 1.5
-0.044691116 0.41261333 1.5
-0.04261246 0.41261333 1.5
-0.040533803 0.41261333 1.5
-0.038455147 0.41261333 1.5
-0.036376491 0.41261333 1.5
-0.034297835 0.41261333 1.5
-0.032219175 0.41261333 1.5
-0.030140521 0.41261333 1.5
-0.028061863 0.41261333 1.5
-0.025983207 0.41261333 1.5
-0.023904551 0.41261333 1.5
-0.021825895 0.41261333 1.5
-0.019747237 0.41261333 1.5
-0.017668581 0.41261333 1.5
-0.015589925 0.41261333 1.5
-0.013511267 0.41261333 1.5
-0.011432611 0.41261333 1.5
-0.0093539543 0.41261333 1.5
-0.0072752982 0.41261333 1.5
-0.0051966417 0.41261333 1.5
-0.0031179849 0.41261333 1.5
-0.0010393283 0.41261333 1.5
0.0010393283 0.41261333 1.5
0.0031179849 0.41261333 1.5
0.0051966417 0.41261333 1.5
0.0072752982 0.41261333 1.5
0.0093539543 0.41261333 1.5
0.011432611 0.41261333 1.5
0.013511267 0.41261333 1.5
0.015589925 0.41261333 1.5
0.017668581 0.41261333 1.5
0.019747237 0.41261333 1.5
0.021825895 0.41261333 1.5
0.023904551 0.41261333 1.5
0.025983207 0.41261333 1.5
0.028061863 0.41261333 1.5
0.030140521 0.41261333 1.5
0.032219175 0.41261333 1.5
0.034297835 0.41261333 1.5
0.036376491 0.41261333 1.5
0.038455147 0.41261333 1.5
0.040533803 0.41261333 1.5
0.04261246 0.41261333 1.5
0.044691116 0.41261333 1.5
0.046769772 0.41261333 1.5
0.048848428 0.41261333 1.5
0.050927088 0.41261333 1.5
0.053005744 0.41261333 1.5
0.0550844 0.41261333 1.5
0.057163056 0.41261333 1.5
0.059241712 0.41261333 1.5
0.061320368 0.41261333 1.5
0.063399024 0.41261333 1.5
0.065477684 0.41261333 1.5
0.067556337 0.41261333 1.5
0.069634996 0.41261333 1.5
0.071713649 0.41261333 1.5
0.073792309 0.41261333 1.5
0.075870968 0.41261333 1.5
0.077949621 0.41261333 1.5
0.080028281 0.41261333 1.5
0.082106933 0.41261333 1.5
0.084185593 0.41261333 1.5
0.086264245 0.41261333 1.5
0.088342905 0.41261333 1.5
0.090421557 0.41261333 1.5
0.092500217 0.41261333 1.5
0.094578877 0.41261333 1.5
0.096657529 0.41261333 1.5
0.098736189 0.41261333 1.5
0.10081484 0.41261333 1.5
0.1028935 0.41261333 1.5
0.10497215 0.41261333 1.5
0.10705081 0.41261333 1.5
0.10912947 0.41261333 1.5
0.11120813 0.41261333 1.5
0.11328679 0.41261333 1.5
0.11536544 0.41261333 1.5
0.1174441 0.41261333 1.5
0.11952275 0.41261333 1.5
0.12160141 0.41261333 1.5
0.12368006 0.41261333 1.5
0.12575872 0.41261333 1.5
0.12783737 0.41261333 1.5
0.12991604 0.41261333 1.5
0.13199469 0.41261333 1.5
0.13407335 0.41261333 1.5
0.136152 0.41261333 1.5
0.13823067 0.41261333 1.5
0.14030932 0.41261333 1.5
0.14238797 0.41261333 1.5
0.14446664 0.41261333 1.5
0.14654529 0.41261333 1.5
0.14862394 0.41261333 1.5
0.1507026 0.41261333 1.5
0.15278126 0.41261333 1.5
0.15485992 0.41261333 1.5
0.15693857 0.41261333 1.5
0.15901724 0.41261333 1.5
0.16109589 0.41261333 1.5
0.16317454 0.41261333 1.5
0.16525319 0.41261333 1.5
0.16733186 0.41261333 1.5
0.16941051 0.41261333 1.5
0.17148916 0.41261333 1.5
0.17356782 0.41261333 1.5
0.17564648 0.41261333 1.5
0.17772514 0.41261333 1.5
0.17980379 0.41261333 1.5
0.18188246 0.41261333 1.5
0.18396111 0.41261333 1.5
0.18603976 0.41261333 1.5
0.18811841 0.41261333 1.5
0.19019708 0.41261333 1.5
0.19227573 0.41261333 1.5
0.19435439 0.41261333 1.5
0.19643305 0.41261333 1.5
0.1985117 0.41261333 1.5
0.20059036 0.41261333 1.5
0.20266901 0.41261333 1.5
0.20474768 0.41261333 1.5
0.20682633 0.41261333 1.5
0.20890498 0.41261333 1.5
0.21098365 0.41261333 1.5
0.2130623 0.41261333 1.5
0.21514095 0.41261333 1.5
0.21721961 0.41261333 1.5
0.21929827 0.41261333 1.5
0.22137693 0.41261333 1.5
0.22345558 0.41261333 1.5
0.22553425 0.41261333 1.5
0.2276129 0.41261333 1.5
0.22969155 0.41261333 1.5
0.2317702 0.41261333 1.5
0.23384887 0.41261333 1.5
0.23592752 0.41261333 1.5
0.23800617 0.41261333 1.5
0.24008483 0.41261333 1.5
0.24216349 0.41261333 1.5
0.24424215 0.41261333 1.5
0.2463208 0.41261333 1.5
0.24839947 0.41261333 1.5
0.25047812 0.41261333 1.5
0.25255677 0.41261333 1.5
0.25463542 0.41261333 1.5
0.25671408 0.41261333 1.5
0.25879276 0.41261333 1.5
0.26087141 0.41261333 1.5
0.26295006 0.41261333 1.5
0.26502872 0.41261333 1.5
0.26710737 0.41261333 1.5
0.26918602 0.41261333 1.5
0.27126467 0.41261333 1.5
0.27334335 0.41261333 1.5
0.27542201 0.41261333 1.5
0.27750066 0.41261333 1.5
0.27957931 0.41261333 1.5
0.28165796 0.41261333 1.5
0.28373662 0.41261333 1.5
0.28581527 0.41261333 1.5
0.28789392 0.41261333 1.5
0.2899726 0.41261333 1.5
0.29205126 0.41261333 1.5
0.29412991 0.41261333 1.5
0.29620856 0.41261333 1.5
0.29828721 0.41261333 1.5
0.30036587 0.41261333 1.5
0.30244452 0.41261333 1.5
0.3045232 0.41261333 1.5
0.30660185 0.41261333 1.5
0.3086805 0.41261333 1.5
0.31075916 0.41261333 1.5
0.31283781 0.41261333 1.5
0.31491646 0.41261333 1.5
0.31699511 0.41261333 1.5
0.3190738 0.41261333 1.5
0.32115245 0.41261333 1.5
0.3232311 0.41261333 1.5
0.32530975 0.41261333 1.5
0.32738841 0.41261333 1.5
0.32946706 0.41261333 1.5
0.33154571 0.41261333 1.5
0.33362439 0.41261333 1.5
0.33570305 0.41261333 1.5
0.3377817 0.41261333 1.5
0.33986035 0.41261333 1.5
0.341939 0.41261333 1.5
0.34401765 0.41261333 1.5
0.34609631 0.41261333 1.5
0.34817499 0.41261333 1.5
0.35025364 0.41261333 1.5
0.35233229 0.41261333 1.5
0.35441095 0.41261333 1.5
0.3564896 0.41261333 1.5
0.35856825 0.41261333 1.5
0.3606469 0.41261333 1.5
0.36272559 0.41261333 1.5
0.36480424 0.41261333 1.5
0.36688289 0.41261333 1.5
0.36896154 0.41261333 1.5
0.3710402 0.41261333 1.5
0.37311885 0.41261333 1.5
0.3751975 0.41261333 1.5
0.37727618 0.41261333 1.5
0.37935483 0.41261333 1.5
0.38143349 0.41261333 1.5
0.38351214 0.41261333 1.5
0.38559079 0.41261333 1.5
0.38766944 0.41261333 1.5
0.3897481 0.41261333 1.5
0.39182678 0.41261333 1.5
0.39390543 0.41261333 1.5
0.39598408 0.41261333 1.5
0.39806274 0.41261333 1.5
0.40014139 0.41261333 1.5
0.40222004 0.41261333 1.5
0.40429869 0.41261333 1.5
0.40637738 0.41261333 1.5
0.40845603 0.41261333 1.5
0.41053468 0.41261333 1.5
0.41261333 0.41261333 1.5
0.41469198 0.41261333 1.5
0.41677064 0.41261333 1.5
0.41884929 0.41261333 1.5
0.42092794 0.41261333 1.5
0.42300662 0.41261333 1.5
0.42508528 0.41261333 1.5
0.42716393 0.41261333 1.5
0.42924258 0.41261333 1.5
0.43132123 0.41261333 1.5
0.43339989 0.41261333 1.5
0.43547854 0.41261333 1.5
0.43755722 0.41261333 1.5
0.43963587 0.41261333 1.5
0.44171453 0.41261333 1.5
0.44379318 0.41261333 1.5
0.44587183 0.41261333 1.5
0.44795048 0.41261333 1.5
0.45002913 0.41261333 1.5
0.45210782 0.41261333 1.5
0.45418647 0.41261333 1.5
0.45626512 0.41261333 1.5
0.45834377 0.41261333 1.5
0.46042243 0.41261333 1.5
0.46250108 0.41261333 1.5
0.46457973 0.41261333 1.5
0.46665841 0.41261333 1.5
0.46873707 0.41261333 1.5
0.47081572 0.41261333 1.5
0.47289437 0.41261333 1.5
0.47497302 0.41261333 1.5
0.47705168 0.41261333 1.5
0.47913033 0.41261333 1.5
0.48120901 0.41261333 1.5
0.48328766 0.41261333 1.5
0.48536631 0.41261333 1.5
0.48744497 0.41261333 1.5
0.48952362 0.41261333 1.5
0.49160227 0.41261333 1.5
0.49368092 0.41261333 1.5
0.49575961 0.41261333 1.5
0.49783826 0.41261333 1.5
0.49991691 0.41261333 1.5
0.50199556 0.41261333 1.5
0.50407422 0.41261333 1.5
0.50615287 0.41261333 1.5
0.50823152 0.41261333 1.5
0.51031017 0.41261333 1.5
0.51238883 0.41261333 1.5
0.51446748 0.41261333 1.5
0.51654613 0.41261333 1.5
0.51862484 0.41261333 1.5
0.52070349 0.41261333 1.5
0.52278215 0.41261333 1.5
0.5248608 0.41261333 1.5
0.52693945 0.41261333 1.5
0.5290181 0.41261333 1.5
0.53109676 0.41261333 1.5
0.53317541 0.41261333 1.5
0.53525406 0.41261333 1.5
0.53733271 0.41261333 1.5
0.53941137 0.41261333 1.5
0.54149002 0.41261333 1.5
0.54356867 0.41261333 1.5
0.54564732 0.41261333 1.5
0.54772604 0.41261333 1.5
0.54980469 0.41261333 1.5
0.55188334 0.41261333 1.5
0.55396199 0.41261333 1.5
0.55604064 0.41261333 1.5
0.5581193 0.41261333 1.5
0.56019795 0.41261333 1.5
0.5622766 0.41261333 1.5
0.56435525 0.41261333 1.5
0.56643391 0.41261333 1.5
0.56851256 0.41261333 1.5
0.57059121 0.41261333 1.5
0.57266986 0.41261333 1.5
0.57474852 0.41261333 1.5
0.57682723 0.41261333 1.5
0.57890588 0.41261333 1.5
0.58098453 0.41261333 1.5
0.58306319 0.41261333 1.5
0.58514184 0.41261333 1.5
0.58722049 0.41261333 1.5
0.58929914 0.41261333 1.5
0.59137779 0.41261333 1.5
0.59345645 0.41261333 1.5
0.5955351 0.41261333 1.5
0.59761375 0.41261333 1.5
0.5996924 0.41261333 1.5
0.60177106 0.41261333 1.5
0.60384971 0.41261333 1.5
0.60592842 0.41261333 1.5
0.60800707 0.41261333 1.5
0.61008573 0.41261333 1.5
0.61216438 0.41261333 1.5
0.61424303 0.41261333 1.5
0.61632168 0.41261333 1.5
0.61840034 0.41261333 1.5
0.62047899 0.41261333 1.5
0.62255764 0.41261333 1.5
0.62463629 0.41261333 1.5
0.62671494 0.41261333 1.5
0.6287936 0.41261333 1.5
0.63087225 0.41261333 1.5
0.6329509 0.41261333 1.5
0.63502955 0.41261333 1.5
0.63710827 0.41261333 1.5
0.63918692 0.41261333 1.5
0.64126557 0.41261333 1.5
0.64334422 0.41261333 1.5
0.64542288 0.41261333 1.5
0.64750153 0.41261333 1.5
0.64958018 0.41261333 1.5
0.65165883 0.41261333 1.5
0.65373749 0.41261333 1.5
0.65581614 0.41261333 1.5
0.65789479 0.41261333 1.5
0.65997344 0.41261333 1.5
0.66205209 0.41261333 1.5
0.66413075 0.41261333 1.5
0.66620946 0.41261333 1.5
0.66828811 0.41261333 1.5
0.67036676 0.41261333 1.5
0.67244542 0.41261333 1.5
0.67452407 0.41261333 1.5
0.67660272 0.41261333 1.5
0.67868137 0.41261333 1.5
0.68076003 0.41261333 1.5
0.68283868 0.41261333 1.5
0.68491733 0.41261333 1.5
0.68699598 0.41261333 1.5
0.68907464 0.41261333 1.5
0.69115329 0.41261333 1.5
0.69323194 0.41261333 1.5
0.69531065 0.41261333 1.5
0.6973893 0.41261333 1.5
0.69946796 0.41261333 1.5
0.70154661 0.41261333 1.5
0.70362526 0.41261333 1.5
0.70570391 0.41261333 1.5
0.70778257 0.41261333 1.5
0.70986122 0.41261333 1.5
0.71193987 0.41261333 1.5
0.71401852 0.41261333 1.5
0.71609718 0.41261333 1.5
0.71817583 0.41261333 1.5
0.72025448 0.41261333 1.5
0.72233313 0.41261333 1.5
0.72441185 0.41261333 1.5
0.7264905 0.41261333 1.5
0.72856915 0.41261333 1.5
0.7306478 0.41261333 1.5
0.73272645 0.41261333 1.5
0.73480511 0.41261333 1.5
0.73688376 0.41261333 1.5
0.73896241 0.41261333 1.5
0.74104106 0.41261333 1.5
0.74311972 0.41261333 1.5
0.74519837 0.41261333 1.5
0.74727702 0.41261333 1.5
0.74935567 0.41261333 1.5
0.75143433 0.41261333 1.5
0.75351304 0.41261333 1.5
0.75559169 0.41261333 1.5
0.75577247 0.41157982 1.4962428
0.75586963 0.41050649 1.4923408
0.75596607 0.40943864 1.4884589
0.75607264 0.40838212 1.4846179
0.7562362 0.40736195 1.4809093
0.75639886 0.40634689 1.4772192
0.7565608 0.40533689 1.4735475
0.75672203 0.40433195 1.4698942
0.75688231 0.40333191 1.4662586
0.75704181 0.40233681 1.4626411
0.75720054 0.40134659 1.4590414
0.75735843 0.40036127 1.4554592
0.75751549 0.39938068 1.4518945
0.75767195 0.39840499 1.4483474
0.75782758 0.39743403 1.4448177
0.7580328 0.39649412 1.4414008
0.75826043 0.39557081 1.4380442
0.75848716 0.39465192 1.4347037
0.75871265 0.39373717 1.4313782
0.75893724 0.39282671 1.4280684
0.75916076 0.39192045 1.4247738
0.75938314 0.39101827 1.4214941
0.75960463 0.39012036 1.4182298
0.75982505 0.38922653 1.4149804
0.7600444 0.38833672 1.4117457
0.76026291 0.38745105 1.4085259
0.76053417 0.38659677 1.4054203
0.76083905 0.38576385 1.4023924
0.76114267 0.38493457 1.3993776
0.76144493 0.38410881 1.3963757
0.76174605 0.38328665 1.3933868
0.76204586 0.38246801 1.3904108
0.76234424 0.38165277 1.3874471
0.76264143 0.38084108 1.3844962
0.76293743 0.38003281 1.3815579
0.76323211 0.37922797 1.3786321
-0.8304233 0.41469198 1.5
-0.82834464 0.41469198 1.5
-0.82626599 0.41469198 1.5
-0.82418734 0.41469198 1.5
-0.82210869 0.41469198 1.5
-0.82003003 0.41469198 1.5
-0.81795138 0.41469198 1.5
-0.81587273 0.41469198 1.5
-0.81379408 0.41469198 1.5
-0.81171536 0.41469198 1.5
-0.80963671 0.41469198 1.5
-0.80755806 0.41469198 1.5
-0.80547941 0.41469198 1.5
-0.80340075 0.41469198 1.5
-0.8013221 0.41469198 1.5
-0.79924345 0.41469198 1.5
-0.7971648 0.41469198 1.5
-0.79508615 0.41469198 1.5
-0.79300749 0.41469198 1.5
-0.79092884 0.41469198 1.5
-0.78885019 0.41469198 1.5
-0.78677154 0.41469198 1.5
-0.78469288 0.41469198 1.5
-0.78261417 0.41469198 1.5
-0.78053552 0.41469198 1.5
-0.77845687 0.41469198 1.5
-0.77637821 0.41469198 1.5
-0.77429956 0.41469198 1.5
-0.77222091 0.41469198 1.5
-0.77014226 0.41469198 1.5
-0.7680636 0.41469198 1.5
-0.76598495 0.41469198 1.5
-0.7639063 0.41469198 1.5
-0.76182765 0.41469198 1.5
-0.759749 0.41469198 1.5
-0.75767034 0.41469198 1.5
-0.75559169 0.41469198 1.5
-0.75351304 0.41469198 1.5
-0.75143433 0.41469198 1.5
-0.74935567 0.41469198 1.5
-0.74727702 0.41469198 1.5
-0.74519837 0.41469198 1.5
-0.74311972 0.41469198 1.5
-0.74104106 0.41469198 1.5
-0.73896241 0.41469198 1.5
-0.73688376 0.41469198 1.5
-0.73480511 0.41469198 1.5
-0.73272645 0.41469198 1.5
-0.7306478 0.41469198 1.5
-0.72856915 0.41469198 1.5
-0.7264905 0.41469198 1.5
-0.72441185 0.41469198 1.5
-0.72233313 0.41469198 1.5
-0.72025448 0.41469198 1.5
-0.71817583 0.41469198 1.5
-0.71609718 0.41469198 1.5
-0.71401852 0.41469198 1.5
-0.71193987 0.41469198 1.5
-0.70986122 0.41469198 1.5
-0.70778257 0.41469198 1.5
-0.70570391 0.41469198 1.5
-0.70362526 0.41469198 1.5
-0.70154661 0.41469198 1.5
-0.69946796 0.41469198 1.5
-0.6973893 0.41469198 1.5
-0.69531065 0.41469198 1.5
-0.69323194 0.41469198 1.5
-0.69115329 0.41469198 1.5
-0.68907464 0.41469198 1.5
-0.68699598 0.41469198 1.5
-0.68491733 0.41469198 1.5
-0.68283868 0.41469198 1.5
-0.68076003 0.41469198 1.5
-0.67868137 0.41469198 1.5
-0.67660272 0.41469198 1.5
-0.67452407 0.41469198 1.5
-0.67244542 0.41469198 1.5
-0.67036676 0.41469198 1.5
-0.66828811 0.41469198 1.5
-0.66620946 0.41469198 1.5
-0.66413075 0.41469198 1.5
-0.66205209 0.41469198 1.5
-0.65997344 0.41469198 1.5
-0.65789479 0.41469198 1.5
-0.65581614 0.41469198 1.5
-0.65373749 0.41469198 1.5
-0.65165883 0.41469198 1.5
-0.64958018 0.41469198 1.5
